# .PCD v0.7 - Point Cloud Data file format
VERSION 0.7
FIELDS x y z
SIZE 4 4 4
TYPE F F F
COUNT 1 1 1
WIDTH 1771
HEIGHT 1
VIEWPOINT 0 0 0 1 0 0 0
POINTS 1771
DATA ascii
70.623001 -16.92 -62.749001
71.288002 -16.92 -63.213402
71.953003 -16.92 -63.5788
72.617996 -16.92 -64.338402
73.282997 -16.92 -64.687599
73.947998 -16.92 -63.9118
74.612999 -16.92 -63.427601
75.278 -16.92 -64.122398
75.943001 -16.92 -66.937599
76.608002 -16.92 -inf
77.273003 -16.92 -inf
77.938004 -16.92 -inf
78.602997 -16.92 -inf
79.267998 -16.92 -inf
-62.376999 -16.200001 -inf
-61.712002 -16.200001 -74.960197
-61.047001 -16.200001 -74.132202
-60.382 -16.200001 -73.369003
-59.716999 -16.200001 -72.762398
-59.051998 -16.200001 -72.265602
-58.387001 -16.200001 -71.795799
-57.722 -16.200001 -71.365601
-57.056999 -16.200001 -70.759003
-56.391998 -16.200001 -70.375603
-55.727001 -16.200001 -69.787003
-55.062 -16.200001 -69.335197
-54.396999 -16.200001 -68.825798
-53.731998 -16.200001 -68.283997
-53.067001 -16.200001 -67.801598
-52.402 -16.200001 -67.364197
-51.737 -16.200001 -66.797203
-51.071999 -16.200001 -66.339996
-50.407001 -16.200001 -65.888199
-49.742001 -16.200001 -65.440002
-49.077 -16.200001 -64.853203
-48.411999 -16.200001 -64.448196
-47.747002 -16.200001 -64.012604
-47.082001 -16.200001 -63.5644
-46.417 -16.200001 -63.265598
-45.751999 -16.200001 -62.785
-45.087002 -16.200001 -62.3638
-44.422001 -16.200001 -61.958801
-43.757 -16.200001 -61.6096
-43.091999 -16.200001 -61.119999
-42.426998 -16.200001 -60.570999
-41.762001 -16.200001 -60.110199
-41.097 -16.200001 -59.464001
-40.431999 -16.200001 -58.994202
-39.766998 -16.200001 -58.524399
-39.102001 -16.200001 -57.962799
-38.437 -16.200001 -57.4174
-37.771999 -16.200001 -56.920601
-37.106998 -16.200001 -56.288799
-36.442001 -16.200001 -55.702
-35.777 -16.200001 -55.153
-35.112 -16.200001 -54.7318
-34.446999 -16.200001 -54.278198
-33.782001 -16.200001 -53.7994
-33.117001 -16.200001 -53.241402
-32.452 -16.200001 -52.5214
-31.787001 -16.200001 -51.979599
-31.122 -16.200001 -51.374802
-30.457001 -16.200001 -50.874401
-29.792 -16.200001 -50.289398
-29.127001 -16.200001 -49.740398
-28.462 -16.200001 -49.535198
-27.797001 -16.200001 -49.229198
-27.132 -16.200001 -48.539799
-26.466999 -16.200001 -47.1772
-25.802 -16.200001 -44.194599
-25.136999 -16.200001 -43.9804
-24.472 -16.200001 -43.4422
-23.806999 -16.200001 -43.613201
-23.142 -16.200001 -43.600601
-22.476999 -16.200001 -43.550201
-21.812 -16.200001 -43.490799
-21.146999 -16.200001 -43.4044
-20.482 -16.200001 -43.285599
-19.816999 -16.200001 -43.0732
-19.152 -16.200001 -42.916599
-18.487 -16.200001 -42.9328
-17.822001 -16.200001 -43.215401
-17.157 -16.200001 -43.267601
-16.492001 -16.200001 -43.026402
-15.827 -16.200001 -43.019199
-15.162 -16.200001 -42.974201
-14.497 -16.200001 -43.118198
-13.832 -16.200001 -42.796001
-13.167 -16.200001 -42.736599
-12.502 -16.200001 -42.6628
-11.837 -16.200001 -42.698799
-11.172 -16.200001 -42.693401
-10.507 -16.200001 -42.7384
-9.842 -16.200001 -42.912998
-9.177 -16.200001 -42.542198
-8.5120001 -16.200001 -42.7672
-7.8470001 -16.200001 -42.785198
-7.1820002 -16.200001 -42.704201
-6.5170002 -16.200001 -43.017399
-5.8520002 -16.200001 -42.837399
-5.1869998 -16.200001 -42.6646
-4.5219998 -16.200001 -42.866199
-3.8570001 -16.200001 -42.882401
-3.1919999 -16.200001 -42.844601
-2.527 -16.200001 -43.0228
-1.862 -16.200001 -43.0354
-1.197 -16.200001 -43.026402
-0.53200001 -16.200001 -42.7384
0.133 -16.200001 -42.659199
0.79799998 -16.200001 -42.426998
1.4630001 -16.200001 -42.783401
2.128 -16.200001 -42.5854
2.793 -16.200001 -42.4972
3.4579999 -16.200001 -42.5116
4.1230001 -16.200001 -42.576401
4.7880001 -16.200001 -42.706001
5.4530001 -16.200001 -42.641201
6.118 -16.200001 -42.684399
6.783 -16.200001 -42.669998
7.448 -16.200001 -42.7798
8.1129999 -16.200001 -42.7654
8.7779999 -16.200001 -42.554798
9.4429998 -16.200001 -42.3298
10.108 -16.200001 -42.423401
10.773 -16.200001 -42.373001
11.438 -16.200001 -42.0112
12.103 -16.200001 -42.324402
12.768 -16.200001 -42.230801
13.433 -16.200001 -42.452202
14.098 -16.200001 -42.358601
14.763 -16.200001 -41.9842
15.428 -16.200001 -41.966202
16.093 -16.200001 -42.005798
16.757999 -16.200001 -42.0508
17.423 -16.200001 -42.133598
18.087999 -16.200001 -42.110199
18.753 -16.200001 -42.193001
19.417999 -16.200001 -41.904999
20.083 -16.200001 -42.252399
20.747999 -16.200001 -42.0112
21.413 -16.200001 -41.944599
22.077999 -16.200001 -41.9104
22.743 -16.200001 -41.813202
23.408001 -16.200001 -41.950001
24.073 -16.200001 -41.915798
24.738001 -16.200001 -41.978802
25.403 -16.200001 -41.762798
26.068001 -16.200001 -41.890598
26.733 -16.200001 -42.040001
27.398001 -16.200001 -42.047199
28.063 -16.200001 -41.937401
28.728001 -16.200001 -42.120998
29.393 -16.200001 -42.468399
30.058001 -16.200001 -42.455799
30.723 -16.200001 -42.824799
31.388 -16.200001 -43.2892
32.053001 -16.200001 -43.7896
32.717999 -16.200001 -43.841801
33.382999 -16.200001 -44.475399
34.048 -16.200001 -45.544601
34.713001 -16.200001 -46.2934
35.377998 -16.200001 -46.6786
36.042999 -16.200001 -47.1628
36.708 -16.200001 -47.4562
37.373001 -16.200001 -48.077202
38.037998 -16.200001 -48.591999
38.702999 -16.200001 -48.827801
39.368 -16.200001 -49.137402
40.033001 -16.200001 -49.376801
40.698002 -16.200001 -49.673801
41.362999 -16.200001 -49.7962
42.028 -16.200001 -50.2192
42.693001 -16.200001 -50.314602
43.358002 -16.200001 -50.368599
44.022999 -16.200001 -50.5648
44.688 -16.200001 -50.854599
45.353001 -16.200001 -51.057999
46.018002 -16.200001 -51.4972
46.682999 -16.200001 -51.929199
47.348 -16.200001 -52.282001
48.013 -16.200001 -52.598801
48.678001 -16.200001 -52.831001
49.342999 -16.200001 -53.061401
50.007999 -16.200001 -53.435799
50.673 -16.200001 -53.6572
51.338001 -16.200001 -54.062199
52.002998 -16.200001 -54.499599
52.667999 -16.200001 -55.046799
53.333 -16.200001 -55.721802
53.998001 -16.200001 -56.233002
54.662998 -16.200001 -56.461601
55.327999 -16.200001 -56.627201
55.993 -16.200001 -57.140202
56.658001 -16.200001 -57.572201
57.323002 -16.200001 -57.907001
57.987999 -16.200001 -58.085201
58.653 -16.200001 -58.069
59.318001 -16.200001 -58.419998
59.983002 -16.200001 -58.562199
60.647999 -16.200001 -58.7584
61.313 -16.200001 -58.4506
61.978001 -16.200001 -58.799801
62.643002 -16.200001 -58.896999
63.307999 -16.200001 -59.069801
63.973 -16.200001 -59.489201
64.638 -16.200001 -60.196602
65.303001 -16.200001 -60.711399
65.968002 -16.200001 -60.936401
66.633003 -16.200001 -61.192001
67.297997 -16.200001 -61.368401
67.962997 -16.200001 -61.715801
68.627998 -16.200001 -62.054199
69.292999 -16.200001 -62.448399
69.958 -16.200001 -62.5546
70.623001 -16.200001 -63.119801
71.288002 -16.200001 -63.4618
71.953003 -16.200001 -63.9118
72.617996 -16.200001 -64.444603
73.282997 -16.200001 -64.340202
73.947998 -16.200001 -64.4356
74.612999 -16.200001 -65.018799
75.278 -16.200001 -66.1744
75.943001 -16.200001 -66.937599
76.608002 -16.200001 -67.824997
77.273003 -16.200001 -67.636002
77.938004 -16.200001 -68.618797
78.602997 -16.200001 -inf
79.267998 -16.200001 -inf
-62.376999 -15.48 -75.610001
-61.712002 -15.48 -74.778397
-61.047001 -15.48 -74.305
-60.382 -15.48 -73.392403
-59.716999 -15.48 -72.758797
-59.051998 -15.48 -72.143204
-58.387001 -15.48 -71.734596
-57.722 -15.48 -71.066803
-57.056999 -15.48 -70.409798
-56.391998 -15.48 -69.968803
-55.727001 -15.48 -69.513397
-55.062 -15.48 -69.169601
-54.396999 -15.48 -68.676399
-53.731998 -15.48 -68.150803
-53.067001 -15.48 -67.722397
-52.402 -15.48 -67.2994
-51.737 -15.48 -66.750397
-51.071999 -15.48 -66.316597
-50.407001 -15.48 -65.884598
-49.742001 -15.48 -65.458
-49.077 -15.48 -64.935997
-48.411999 -15.48 -64.4338
-47.747002 -15.48 -63.877602
-47.082001 -15.48 -63.582401
-46.417 -15.48 -63.110802
-45.751999 -15.48 -62.891201
-45.087002 -15.48 -62.3494
-44.422001 -15.48 -61.742802
-43.757 -15.48 -61.400799
-43.091999 -15.48 -60.772598
-42.426998 -15.48 -60.3298
-41.762001 -15.48 -59.881599
-41.097 -15.48 -59.311001
-40.431999 -15.48 -58.767399
-39.766998 -15.48 -58.383999
-39.102001 -15.48 -57.727001
-38.437 -15.48 -57.2122
-37.771999 -15.48 -56.697399
-37.106998 -15.48 -56.286999
-36.442001 -15.48 -55.7146
-35.777 -15.48 -54.937
-35.112 -15.48 -54.469002
-34.446999 -15.48 -54.119801
-33.782001 -15.48 -53.7598
-33.117001 -15.48 -53.165798
-32.452 -15.48 -52.656399
-31.787001 -15.48 -51.997601
-31.122 -15.48 -51.500801
-30.457001 -15.48 -50.975201
-29.792 -15.48 -50.255199
-29.127001 -15.48 -49.715199
-28.462 -15.48 -49.358799
-27.797001 -15.48 -49.178799
-27.132 -15.48 -48.316601
-26.466999 -15.48 -46.674999
-25.802 -15.48 -44.232399
-25.136999 -15.48 -44.007401
-24.472 -15.48 -43.368401
-23.806999 -15.48 -43.7878
-23.142 -15.48 -43.398998
-22.476999 -15.48 -43.542999
-21.812 -15.48 -43.4566
-21.146999 -15.48 -43.345001
-20.482 -15.48 -43.197399
-19.816999 -15.48 -43.0732
-19.152 -15.48 -42.9184
-18.487 -15.48 -42.949001
-17.822001 -15.48 -43.010201
-17.157 -15.48 -43.017399
-16.492001 -15.48 -43.021
-15.827 -15.48 -43.075001
-15.162 -15.48 -43.012001
-14.497 -15.48 -42.846401
-13.832 -15.48 -43.015598
-13.167 -15.48 -42.589001
-12.502 -15.48 -42.608799
-11.837 -15.48 -42.538601
-11.172 -15.48 -42.5476
-10.507 -15.48 -42.947201
-9.842 -15.48 -43.087601
-9.177 -15.48 -43.155998
-8.5120001 -15.48 -43.039001
-7.8470001 -15.48 -42.923801
-7.1820002 -15.48 -42.9058
-6.5170002 -15.48 -42.952599
-5.8520002 -15.48 -42.821201
-5.1869998 -15.48 -42.657398
-4.5219998 -15.48 -42.821201
-3.8570001 -15.48 -42.823002
-3.1919999 -15.48 -42.848202
-2.527 -15.48 -42.716801
-1.862 -15.48 -42.718601
-1.197 -15.48 -42.9562
-0.53200001 -15.48 -42.781601
0.133 -15.48 -42.824799
0.79799998 -15.48 -42.4324
1.4630001 -15.48 -42.723999
2.128 -15.48 -42.704201
2.793 -15.48 -42.430599
3.4579999 -15.48 -42.583599
4.1230001 -15.48 -42.6772
4.7880001 -15.48 -42.695202
5.4530001 -15.48 -42.756401
6.118 -15.48 -42.409
6.783 -15.48 -42.590801
7.448 -15.48 -42.747398
8.1129999 -15.48 -42.7906
8.7779999 -15.48 -42.5998
9.4429998 -15.48 -42.545799
10.108 -15.48 -42.2812
10.773 -15.48 -42.337002
11.438 -15.48 -42.130001
12.103 -15.48 -42.412601
12.768 -15.48 -42.295601
13.433 -15.48 -42.5242
14.098 -15.48 -42.358601
14.763 -15.48 -42.209202
15.428 -15.48 -42.149799
16.093 -15.48 -42.032799
16.757999 -15.48 -42.119202
17.423 -15.48 -42.383801
18.087999 -15.48 -42.065201
18.753 -15.48 -42.247002
19.417999 -15.48 -41.868999
20.083 -15.48 -42.146198
20.747999 -15.48 -41.8438
21.413 -15.48 -41.876202
22.077999 -15.48 -41.8564
22.743 -15.48 -41.7304
23.408001 -15.48 -41.802399
24.073 -15.48 -41.735802
24.738001 -15.48 -41.951801
25.403 -15.48 -42.084999
26.068001 -15.48 -41.890598
26.733 -15.48 -41.930199
27.398001 -15.48 -41.759201
28.063 -15.48 -41.647598
28.728001 -15.48 -41.724998
29.393 -15.48 -42.081402
30.058001 -15.48 -42.3424
30.723 -15.48 -42.635799
31.388 -15.48 -42.986801
32.053001 -15.48 -43.271198
32.717999 -15.48 -43.330601
33.382999 -15.48 -44.135201
34.048 -15.48 -45.3862
34.713001 -15.48 -45.969398
35.377998 -15.48 -46.494999
36.042999 -15.48 -46.797401
36.708 -15.48 -47.242001
37.373001 -15.48 -47.8522
38.037998 -15.48 -48.575802
38.702999 -15.48 -48.829601
39.368 -15.48 -49.063599
40.033001 -15.48 -49.459599
40.698002 -15.48 -49.652199
41.362999 -15.48 -49.8232
42.028 -15.48 -50.012199
42.693001 -15.48 -50.262402
43.358002 -15.48 -50.426201
44.022999 -15.48 -50.7556
44.688 -15.48 -50.841999
45.353001 -15.48 -51.133598
46.018002 -15.48 -51.450401
46.682999 -15.48 -51.783401
47.348 -15.48 -52.102001
48.013 -15.48 -52.4548
48.678001 -15.48 -52.875999
49.342999 -15.48 -52.946201
50.007999 -15.48 -53.4412
50.673 -15.48 -53.743599
51.338001 -15.48 -54.011799
52.002998 -15.48 -54.478001
52.667999 -15.48 -55.001801
53.333 -15.48 -55.450001
53.998001 -15.48 -56.080002
54.662998 -15.48 -56.4184
55.327999 -15.48 -56.526402
55.993 -15.48 -57.0718
56.658001 -15.48 -57.268002
57.323002 -15.48 -57.892601
57.987999 -15.48 -58.007801
58.653 -15.48 -58.288601
59.318001 -15.48 -58.6036
59.983002 -15.48 -58.612598
60.647999 -15.48 -58.650398
61.313 -15.48 -58.589199
61.978001 -15.48 -58.792599
62.643002 -15.48 -59.109402
63.307999 -15.48 -59.132801
63.973 -15.48 -59.501801
64.638 -15.48 -60.288399
65.303001 -15.48 -60.977798
65.968002 -15.48 -61.272999
66.633003 -15.48 -61.422401
67.297997 -15.48 -61.548401
67.962997 -15.48 -61.8904
68.627998 -15.48 -62.331402
69.292999 -15.48 -62.736401
69.958 -15.48 -63.334
70.623001 -15.48 -63.623798
71.288002 -15.48 -63.955002
71.953003 -15.48 -64.3834
72.617996 -15.48 -64.937798
73.282997 -15.48 -65.564201
73.947998 -15.48 -66.1744
74.612999 -15.48 -66.440804
75.278 -15.48 -67.258003
75.943001 -15.48 -66.937599
76.608002 -15.48 -67.0924
77.273003 -15.48 -66.982597
77.938004 -15.48 -67.771004
78.602997 -15.48 -inf
79.267998 -15.48 -inf
-62.376999 -14.76 -75.451599
-61.712002 -14.76 -74.753197
-61.047001 -14.76 -74.288803
-60.382 -14.76 -73.3582
-59.716999 -14.76 -72.593201
-59.051998 -14.76 -72.170197
-58.387001 -14.76 -71.801201
-57.722 -14.76 -71.226997
-57.056999 -14.76 -70.732002
-56.391998 -14.76 -70.227997
-55.727001 -14.76 -69.788803
-55.062 -14.76 -69.425201
-54.396999 -14.76 -68.930199
-53.731998 -14.76 -68.406403
-53.067001 -14.76 -67.7332
-52.402 -14.76 -67.250801
-51.737 -14.76 -66.723396
-51.071999 -14.76 -66.195999
-50.407001 -14.76 -65.825203
-49.742001 -14.76 -65.427399
-49.077 -14.76 -64.934196
-48.411999 -14.76 -64.385201
-47.747002 -14.76 -63.8092
-47.082001 -14.76 -63.402401
-46.417 -14.76 -62.9758
-45.751999 -14.76 -62.723801
-45.087002 -14.76 -62.072201
-44.422001 -14.76 -61.48
-43.757 -14.76 -61.006599
-43.091999 -14.76 -60.6502
-42.426998 -14.76 -60.183998
-41.762001 -14.76 -59.669201
-41.097 -14.76 -59.0284
-40.431999 -14.76 -58.639599
-39.766998 -14.76 -58.2328
-39.102001 -14.76 -57.725201
-38.437 -14.76 -57.0826
-37.771999 -14.76 -56.7244
-37.106998 -14.76 -56.270802
-36.442001 -14.76 -55.660599
-35.777 -14.76 -54.973
-35.112 -14.76 -54.569801
-34.446999 -14.76 -54.101799
-33.782001 -14.76 -53.7346
-33.117001 -14.76 -53.153198
-32.452 -14.76 -52.728401
-31.787001 -14.76 -51.9958
-31.122 -14.76 -51.628601
-30.457001 -14.76 -50.980598
-29.792 -14.76 -50.186798
-29.127001 -14.76 -49.726002
-28.462 -14.76 -49.202202
-27.797001 -14.76 -49.0168
-27.132 -14.76 -48.304001
-26.466999 -14.76 -46.680401
-25.802 -14.76 -44.385399
-25.136999 -14.76 -43.856201
-24.472 -14.76 -43.8004
-23.806999 -14.76 -43.951599
-23.142 -14.76 -43.676201
-22.476999 -14.76 -43.638401
-21.812 -14.76 -52.575401
-21.146999 -14.76 -52.575401
-20.482 -14.76 -43.364799
-19.816999 -14.76 -43.231602
-19.152 -14.76 -43.119999
-18.487 -14.76 -43.006599
-17.822001 -14.76 -42.947201
-17.157 -14.76 -42.999401
-16.492001 -14.76 -42.929199
-15.827 -14.76 -43.031799
-15.162 -14.76 -43.021
-14.497 -14.76 -42.8932
-13.832 -14.76 -42.778
-13.167 -14.76 -42.806801
-12.502 -14.76 -42.646599
-11.837 -14.76 -42.776199
-11.172 -14.76 -42.716801
-10.507 -14.76 -42.875198
-9.842 -14.76 -43.051601
-9.177 -14.76 -43.174
-8.5120001 -14.76 -43.154202
-7.8470001 -14.76 -42.646599
-7.1820002 -14.76 -42.671799
-6.5170002 -14.76 -42.711399
-5.8520002 -14.76 -43.0354
-5.1869998 -14.76 -42.7798
-4.5219998 -14.76 -42.860802
-3.8570001 -14.76 -42.934601
-3.1919999 -14.76 -42.756401
-2.527 -14.76 -42.603401
-1.862 -14.76 -42.833801
-1.197 -14.76 -42.786999
-0.53200001 -14.76 -42.808601
0.133 -14.76 -42.772598
0.79799998 -14.76 -42.542198
1.4630001 -14.76 -42.810398
2.128 -14.76 -42.605202
2.793 -14.76 -42.7402
3.4579999 -14.76 -42.911201
4.1230001 -14.76 -42.621399
4.7880001 -14.76 -42.5998
5.4530001 -14.76 -42.731201
6.118 -14.76 -42.671799
6.783 -14.76 -42.576401
7.448 -14.76 -42.7906
8.1129999 -14.76 -42.742001
8.7779999 -14.76 -42.580002
9.4429998 -14.76 -42.5368
10.108 -14.76 -42.437801
10.773 -14.76 -42.275799
11.438 -14.76 -42.259602
12.103 -14.76 -42.2542
12.768 -14.76 -42.205601
13.433 -14.76 -42.441399
14.098 -14.76 -42.0886
14.763 -14.76 -42.283001
15.428 -14.76 -42.256001
16.093 -14.76 -42.146198
16.757999 -14.76 -42.119202
17.423 -14.76 -42.133598
18.087999 -14.76 -41.941002
18.753 -14.76 -42.052601
19.417999 -14.76 -41.9842
20.083 -14.76 -42.2038
20.747999 -14.76 -41.9212
21.413 -14.76 -41.919399
22.077999 -14.76 -41.8834
22.743 -14.76 -41.778999
23.408001 -14.76 -41.778999
24.073 -14.76 -41.841999
24.738001 -14.76 -42.094002
25.403 -14.76 -41.964401
26.068001 -14.76 -41.877998
26.733 -14.76 -41.890598
27.398001 -14.76 -41.847401
28.063 -14.76 -41.813202
28.728001 -14.76 -41.8582
29.393 -14.76 -42.059799
30.058001 -14.76 -42.180401
30.723 -14.76 -42.264999
31.388 -14.76 -42.617802
32.053001 -14.76 -42.9562
32.717999 -14.76 -43.012001
33.382999 -14.76 -43.728401
34.048 -14.76 -45.240398
34.713001 -14.76 -45.785801
35.377998 -14.76 -46.450001
36.042999 -14.76 -46.647999
36.708 -14.76 -47.078201
37.373001 -14.76 -47.5966
38.037998 -14.76 -48.437199
38.702999 -14.76 -48.968201
39.368 -14.76 -49.317402
40.033001 -14.76 -49.457802
40.698002 -14.76 -49.743999
41.362999 -14.76 -49.895199
42.028 -14.76 -50.030201
42.693001 -14.76 -50.284
43.358002 -14.76 -50.4622
44.022999 -14.76 -50.710602
44.688 -14.76 -50.836601
45.353001 -14.76 -51.054401
46.018002 -14.76 -51.340599
46.682999 -14.76 -51.626801
47.348 -14.76 -52.111
48.013 -14.76 -52.3414
48.678001 -14.76 -52.688801
49.342999 -14.76 -53.0056
50.007999 -14.76 -53.493401
50.673 -14.76 -53.560001
51.338001 -14.76 -54.191799
52.002998 -14.76 -54.344799
52.667999 -14.76 -54.7948
53.333 -14.76 -55.414001
53.998001 -14.76 -55.9846
54.662998 -14.76 -56.310398
55.327999 -14.76 -56.805401
55.993 -14.76 -57.028599
56.658001 -14.76 -57.273399
57.323002 -14.76 -57.6838
57.987999 -14.76 -57.912399
58.653 -14.76 -58.344398
59.318001 -14.76 -58.520802
59.983002 -14.76 -58.781799
60.647999 -14.76 -58.628799
61.313 -14.76 -58.637798
61.978001 -14.76 -58.9132
62.643002 -14.76 -59.1544
63.307999 -14.76 -58.965401
63.973 -14.76 -59.4118
64.638 -14.76 -60.284801
65.303001 -14.76 -61.029999
65.968002 -14.76 -61.507
66.633003 -14.76 -61.861599
67.297997 -14.76 -62.0686
67.962997 -14.76 -62.4142
68.627998 -14.76 -62.676998
69.292999 -14.76 -63.114399
69.958 -14.76 -63.4492
70.623001 -14.76 -63.830799
71.288002 -14.76 -64.059402
71.953003 -14.76 -64.900002
72.617996 -14.76 -65.241997
73.282997 -14.76 -65.8666
73.947998 -14.76 -66.437202
74.612999 -14.76 -66.5056
75.278 -14.76 -67.045601
75.943001 -14.76 -66.925003
76.608002 -14.76 -66.501999
77.273003 -14.76 -66.600998
77.938004 -14.76 -inf
78.602997 -14.76 -inf
79.267998 -14.76 -inf
-62.376999 -14.04 -75.5812
-61.712002 -14.04 -74.9188
-61.047001 -14.04 -74.403999
-60.382 -14.04 -73.194397
-59.716999 -14.04 -72.397003
-59.051998 -14.04 -72.1828
-58.387001 -14.04 -71.806602
-57.722 -14.04 -71.374603
-57.056999 -14.04 -70.713997
-56.391998 -14.04 -70.192001
-55.727001 -14.04 -69.758202
-55.062 -14.04 -69.194801
-54.396999 -14.04 -68.707001
-53.731998 -14.04 -68.258797
-53.067001 -14.04 -67.754799
-52.402 -14.04 -67.270599
-51.737 -14.04 -66.862
-51.071999 -14.04 -66.3508
-50.407001 -14.04 -65.832397
-49.742001 -14.04 -65.357201
-49.077 -14.04 -64.925201
-48.411999 -14.04 -64.381599
-47.747002 -14.04 -63.7966
-47.082001 -14.04 -63.227798
-46.417 -14.04 -62.723801
-45.751999 -14.04 -62.4286
-45.087002 -14.04 -61.9678
-44.422001 -14.04 -61.4692
-43.757 -14.04 -61.080399
-43.091999 -14.04 -60.533199
-42.426998 -14.04 -60.047199
-41.762001 -14.04 -59.481998
-41.097 -14.04 -58.909599
-40.431999 -14.04 -58.499199
-39.766998 -14.04 -58.049198
-39.102001 -14.04 -57.528999
-38.437 -14.04 -57.215801
-37.771999 -14.04 -56.632599
-37.106998 -14.04 -56.045799
-36.442001 -14.04 -55.441002
-35.777 -14.04 -54.755199
-35.112 -14.04 -54.368198
-34.446999 -14.04 -54.051399
-33.782001 -14.04 -53.7094
-33.117001 -14.04 -53.246799
-32.452 -14.04 -52.613201
-31.787001 -14.04 -52.053398
-31.122 -14.04 -51.648399
-30.457001 -14.04 -51.007599
-29.792 -14.04 -50.548599
-29.127001 -14.04 -50.0284
-28.462 -14.04 -49.497398
-27.797001 -14.04 -49.013199
-27.132 -14.04 -48.457001
-26.466999 -14.04 -46.671398
-25.802 -14.04 -44.194599
-25.136999 -14.04 -44.054199
-24.472 -14.04 -43.771599
-23.806999 -14.04 -43.919201
-23.142 -14.04 -43.632999
-22.476999 -14.04 -43.638401
-21.812 -14.04 -43.777
-21.146999 -14.04 -43.530399
-20.482 -14.04 -43.602402
-19.816999 -14.04 -43.357601
-19.152 -14.04 -43.209999
-18.487 -14.04 -43.039001
-17.822001 -14.04 -42.8932
-17.157 -14.04 -42.992199
-16.492001 -14.04 -43.130798
-15.827 -14.04 -43.138
-15.162 -14.04 -43.287399
-14.497 -14.04 -43.375599
-13.832 -14.04 -43.244202
-13.167 -14.04 -43.0984
-12.502 -14.04 -42.887798
-11.837 -14.04 -42.704201
-11.172 -14.04 -42.711399
-10.507 -14.04 -42.9436
-9.842 -14.04 -42.950802
-9.177 -14.04 -43.114601
-8.5120001 -14.04 -43.1614
-7.8470001 -14.04 -42.794201
-7.1820002 -14.04 -42.774399
-6.5170002 -14.04 -42.876999
-5.8520002 -14.04 -42.912998
-5.1869998 -14.04 -43.066002
-4.5219998 -14.04 -42.797798
-3.8570001 -14.04 -42.6898
-3.1919999 -14.04 -42.8554
-2.527 -14.04 -42.7672
-1.862 -14.04 -42.990398
-1.197 -14.04 -42.903999
-0.53200001 -14.04 -42.7402
0.133 -14.04 -42.914799
0.79799998 -14.04 -42.7924
1.4630001 -14.04 -42.781601
2.128 -14.04 -42.806801
2.793 -14.04 -42.7924
3.4579999 -14.04 -42.659199
4.1230001 -14.04 -42.491798
4.7880001 -14.04 -42.696999
5.4530001 -14.04 -42.5998
6.118 -14.04 -42.706001
6.783 -14.04 -42.3046
7.448 -14.04 -42.979599
8.1129999 -14.04 -42.826599
8.7779999 -14.04 -42.4828
9.4429998 -14.04 -42.286598
10.108 -14.04 -42.2146
10.773 -14.04 -42.2038
11.438 -14.04 -42.261398
12.103 -14.04 -42.277599
12.768 -14.04 -42.2416
13.433 -14.04 -42.4198
14.098 -14.04 -42.264999
14.763 -14.04 -42.284801
15.428 -14.04 -42.479198
16.093 -14.04 -42.412601
16.757999 -14.04 -42.338799
17.423 -14.04 -42.376598
18.087999 -14.04 -42.119202
18.753 -14.04 -41.899601
19.417999 -14.04 -41.8564
20.083 -14.04 -41.917599
20.747999 -14.04 -41.750198
21.413 -14.04 -41.8708
22.077999 -14.04 -41.734001
22.743 -14.04 -41.777199
23.408001 -14.04 -41.825802
24.073 -14.04 -41.928398
24.738001 -14.04 -42.013
25.403 -14.04 -41.9482
26.068001 -14.04 -41.978802
26.733 -14.04 -41.9482
27.398001 -14.04 -41.9482
28.063 -14.04 -42.005798
28.728001 -14.04 -41.941002
29.393 -14.04 -41.977001
30.058001 -14.04 -42.353199
30.723 -14.04 -42.3172
31.388 -14.04 -42.283001
32.053001 -14.04 -42.513401
32.717999 -14.04 -42.927399
33.382999 -14.04 -43.5196
34.048 -14.04 -45.0784
34.713001 -14.04 -45.735401
35.377998 -14.04 -46.124199
36.042999 -14.04 -46.390598
36.708 -14.04 -46.871201
37.373001 -14.04 -47.305
38.037998 -14.04 -48.320202
38.702999 -14.04 -48.984402
39.368 -14.04 -49.672001
40.033001 -14.04 -49.4884
40.698002 -14.04 -49.9258
41.362999 -14.04 -49.904202
42.028 -14.04 -50.082401
42.693001 -14.04 -50.221001
43.358002 -14.04 -50.431599
44.022999 -14.04 -50.554001
44.688 -14.04 -50.996799
45.353001 -14.04 -51.000401
46.018002 -14.04 -51.256001
46.682999 -14.04 -51.608799
47.348 -14.04 -52.028198
48.013 -14.04 -52.3396
48.678001 -14.04 -52.550201
49.342999 -14.04 -52.948002
50.007999 -14.04 -53.482601
50.673 -14.04 -53.7598
51.338001 -14.04 -54.152199
52.002998 -14.04 -54.405998
52.667999 -14.04 -54.7444
53.333 -14.04 -55.212399
53.998001 -14.04 -55.878399
54.662998 -14.04 -56.335602
55.327999 -14.04 -56.792801
55.993 -14.04 -57.154598
56.658001 -14.04 -57.341801
57.323002 -14.04 -57.6604
57.987999 -14.04 -57.979
58.653 -14.04 -58.238201
59.318001 -14.04 -58.466801
59.983002 -14.04 -58.778198
60.647999 -14.04 -58.609001
61.313 -14.04 -58.6702
61.978001 -14.04 -58.8484
62.643002 -14.04 -58.799801
63.307999 -14.04 -59.478401
63.973 -14.04 -59.5378
64.638 -14.04 -60.308201
65.303001 -14.04 -61.2892
65.968002 -14.04 -61.620399
66.633003 -14.04 -61.832802
67.297997 -14.04 -62.149601
67.962997 -14.04 -62.493401
68.627998 -14.04 -62.826401
69.292999 -14.04 -63.317799
69.958 -14.04 -64.046799
70.623001 -14.04 -64.086403
71.288002 -14.04 -64.730797
71.953003 -14.04 -65.132202
72.617996 -14.04 -65.582199
73.282997 -14.04 -65.911598
73.947998 -14.04 -66.356201
74.612999 -14.04 -66.512802
75.278 -14.04 -66.6064
75.943001 -14.04 -66.518204
76.608002 -14.04 -66.195999
77.273003 -14.04 -66.457001
77.938004 -14.04 -inf
78.602997 -14.04 -inf
79.267998 -14.04 -inf
-62.376999 -13.32 -75.642403
-61.712002 -13.32 -74.933197
-61.047001 -13.32 -74.357201
-60.382 -13.32 -73.1782
-59.716999 -13.32 -72.449203
-59.051998 -13.32 -71.9758
-58.387001 -13.32 -71.5186
-57.722 -13.32 -71.142403
-57.056999 -13.32 -70.762604
-56.391998 -13.32 -70.246002
-55.727001 -13.32 -69.900398
-55.062 -13.32 -69.3424
-54.396999 -13.32 -68.719597
-53.731998 -13.32 -68.312798
-53.067001 -13.32 -67.870003
-52.402 -13.32 -67.330002
-51.737 -13.32 -66.962799
-51.071999 -13.32 -66.372398
-50.407001 -13.32 -65.853996
-49.742001 -13.32 -65.391403
-49.077 -13.32 -64.718201
-48.411999 -13.32 -64.306
-47.747002 -13.32 -63.6922
-47.082001 -13.32 -63.0784
-46.417 -13.32 -62.572601
-45.751999 -13.32 -62.243198
-45.087002 -13.32 -61.9156
-44.422001 -13.32 -61.209999
-43.757 -13.32 -60.862598
-43.091999 -13.32 -60.1912
-42.426998 -13.32 -59.953602
-41.762001 -13.32 -59.291199
-41.097 -13.32 -58.724201
-40.431999 -13.32 -58.313801
-39.766998 -13.32 -58.072601
-39.102001 -13.32 -57.559601
-38.437 -13.32 -57.1978
-37.771999 -13.32 -56.537201
-37.106998 -13.32 -55.939602
-36.442001 -13.32 -55.475201
-35.777 -13.32 -54.848801
-35.112 -13.32 -54.4258
-34.446999 -13.32 -53.966801
-33.782001 -13.32 -53.639198
-33.117001 -13.32 -53.1982
-32.452 -13.32 -52.681599
-31.787001 -13.32 -52.118198
-31.122 -13.32 -51.691601
-30.457001 -13.32 -51.106602
-29.792 -13.32 -50.656601
-29.127001 -13.32 -50.0662
-28.462 -13.32 -49.666599
-27.797001 -13.32 -49.097801
-27.132 -13.32 -48.563202
-26.466999 -13.32 -48.089802
-25.802 -13.32 -52.080399
-25.136999 -13.32 -44.178398
-24.472 -13.32 -44.236
-23.806999 -13.32 -44.365601
-23.142 -13.32 -53.534801
-22.476999 -13.32 -52.433201
-21.812 -13.32 -44.047001
-21.146999 -13.32 -43.687
-20.482 -13.32 -43.632999
-19.816999 -13.32 -43.3792
-19.152 -13.32 -43.312599
-18.487 -13.32 -43.2118
-17.822001 -13.32 -43.069599
-17.157 -13.32 -43.0732
-16.492001 -13.32 -43.082199
-15.827 -13.32 -43.0606
-15.162 -13.32 -43.262199
-14.497 -13.32 -43.382801
-13.832 -13.32 -43.346802
-13.167 -13.32 -43.069599
-12.502 -13.32 -42.922001
-11.837 -13.32 -42.837399
-11.172 -13.32 -42.770802
-10.507 -13.32 -42.770802
-9.842 -13.32 -42.925598
-9.177 -13.32 -43.190201
-8.5120001 -13.32 -43.312599
-7.8470001 -13.32 -43.0966
-7.1820002 -13.32 -42.927399
-6.5170002 -13.32 -42.965199
-5.8520002 -13.32 -43.0966
-5.1869998 -13.32 -43.181198
-4.5219998 -13.32 -42.6628
-3.8570001 -13.32 -42.715
-3.1919999 -13.32 -42.903999
-2.527 -13.32 -42.592602
-1.862 -13.32 -42.871601
-1.197 -13.32 -42.900398
-0.53200001 -13.32 -42.754601
0.133 -13.32 -42.653801
0.79799998 -13.32 -42.7384
1.4630001 -13.32 -42.716801
2.128 -13.32 -42.8554
2.793 -13.32 -42.903999
3.4579999 -13.32 -42.463001
4.1230001 -13.32 -42.682598
4.7880001 -13.32 -42.603401
5.4530001 -13.32 -42.401798
6.118 -13.32 -42.592602
6.783 -13.32 -42.635799
7.448 -13.32 -42.844601
8.1129999 -13.32 -42.679001
8.7779999 -13.32 -42.455799
9.4429998 -13.32 -42.4702
10.108 -13.32 -42.545799
10.773 -13.32 -42.272202
11.438 -13.32 -42.245201
12.103 -13.32 -42.355
12.768 -13.32 -42.3964
13.433 -13.32 -42.382
14.098 -13.32 -42.355
14.763 -13.32 -42.455799
15.428 -13.32 -42.5368
16.093 -13.32 -42.531399
16.757999 -13.32 -42.292
17.423 -13.32 -42.5602
18.087999 -13.32 -42.248798
18.753 -13.32 -42.049
19.417999 -13.32 -41.741199
20.083 -13.32 -41.8438
20.747999 -13.32 -41.791599
21.413 -13.32 -41.829399
22.077999 -13.32 -41.8582
22.743 -13.32 -41.867199
23.408001 -13.32 -41.865398
24.073 -13.32 -41.854599
24.738001 -13.32 -41.876202
25.403 -13.32 -41.977001
26.068001 -13.32 -42.117401
26.733 -13.32 -41.872601
27.398001 -13.32 -42.122799
28.063 -13.32 -42.070599
28.728001 -13.32 -42.021999
29.393 -13.32 -41.996799
30.058001 -13.32 -42.1012
30.723 -13.32 -42.410801
31.388 -13.32 -42.507999
32.053001 -13.32 -42.594398
32.717999 -13.32 -42.986801
33.382999 -13.32 -43.578999
34.048 -13.32 -45.019001
34.713001 -13.32 -45.577
35.377998 -13.32 -45.9622
36.042999 -13.32 -46.3186
36.708 -13.32 -46.9072
37.373001 -13.32 -47.153801
38.037998 -13.32 -48.015999
38.702999 -13.32 -48.973598
39.368 -13.32 -49.213001
40.033001 -13.32 -49.560398
40.698002 -13.32 -50.0536
41.362999 -13.32 -49.866402
42.028 -13.32 -50.255199
42.693001 -13.32 -50.406399
43.358002 -13.32 -50.464001
44.022999 -13.32 -50.687199
44.688 -13.32 -50.833
45.353001 -13.32 -50.8204
46.018002 -13.32 -51.3316
46.682999 -13.32 -51.616001
47.348 -13.32 -51.812199
48.013 -13.32 -52.114601
48.678001 -13.32 -52.501598
49.342999 -13.32 -52.861599
50.007999 -13.32 -53.2486
50.673 -13.32 -53.635601
51.338001 -13.32 -53.986599
52.002998 -13.32 -54.188202
52.667999 -13.32 -54.454601
53.333 -13.32 -55.030602
53.998001 -13.32 -55.6786
54.662998 -13.32 -55.7416
55.327999 -13.32 -56.6362
55.993 -13.32 -57.2104
56.658001 -13.32 -57.383202
57.323002 -13.32 -58.0312
57.987999 -13.32 -57.986198
58.653 -13.32 -58.356998
59.318001 -13.32 -58.612598
59.983002 -13.32 -58.614399
60.647999 -13.32 -58.621601
61.313 -13.32 -58.659401
61.978001 -13.32 -58.832199
62.643002 -13.32 -59.393799
63.307999 -13.32 -59.480202
63.973 -13.32 -59.535999
64.638 -13.32 -60.302799
65.303001 -13.32 -61.409801
65.968002 -13.32 -61.597
66.633003 -13.32 -61.771599
67.297997 -13.32 -62.181999
67.962997 -13.32 -62.686001
68.627998 -13.32 -63.177399
69.292999 -13.32 -63.549999
69.958 -13.32 -64.2052
70.623001 -13.32 -64.723602
71.288002 -13.32 -64.986397
71.953003 -13.32 -65.373398
72.617996 -13.32 -65.830597
73.282997 -13.32 -65.938599
73.947998 -13.32 -66.588402
74.612999 -13.32 -66.469597
75.278 -13.32 -66.503799
75.943001 -13.32 -66.4048
76.608002 -13.32 -66.613602
77.273003 -13.32 -67.445198
77.938004 -13.32 -inf
78.602997 -13.32 -inf
79.267998 -13.32 -inf
-62.376999 -12.6 -75.613602
-61.712002 -12.6 -74.888199
-61.047001 -12.6 -74.294197
-60.382 -12.6 -73.192596
-59.716999 -12.6 -72.343002
-59.051998 -12.6 -72.125198
-58.387001 -12.6 -71.6446
-57.722 -12.6 -71.3116
-57.056999 -12.6 -70.874199
-56.391998 -12.6 -70.292801
-55.727001 -12.6 -69.851799
-55.062 -12.6 -69.401802
-54.396999 -12.6 -68.816803
-53.731998 -12.6 -68.388397
-53.067001 -12.6 -67.925797
-52.402 -12.6 -67.407402
-51.737 -12.6 -66.932198
-51.071999 -12.6 -66.365196
-50.407001 -12.6 -65.801804
-49.742001 -12.6 -65.290604
-49.077 -12.6 -64.6408
-48.411999 -12.6 -63.848801
-47.747002 -12.6 -63.294399
-47.082001 -12.6 -62.918201
-46.417 -12.6 -62.460999
-45.751999 -12.6 -62.0956
-45.087002 -12.6 -61.66
-44.422001 -12.6 -61.235199
-43.757 -12.6 -60.668201
-43.091999 -12.6 -60.0994
-42.426998 -12.6 -59.748402
-41.762001 -12.6 -59.1922
-41.097 -12.6 -58.684601
-40.431999 -12.6 -58.405602
-39.766998 -12.6 -58.074402
-39.102001 -12.6 -57.473202
-38.437 -12.6 -56.962002
-37.771999 -12.6 -56.544399
-37.106998 -12.6 -56.013401
-36.442001 -12.6 -55.597599
-35.777 -12.6 -55.322201
-35.112 -12.6 -54.7948
-34.446999 -12.6 -54.058601
-33.782001 -12.6 -53.637402
-33.117001 -12.6 -53.263
-32.452 -12.6 -52.883202
-31.787001 -12.6 -52.354
-31.122 -12.6 -51.5476
-30.457001 -12.6 -51.0868
-29.792 -12.6 -50.604401
-29.127001 -12.6 -50.062599
-28.462 -12.6 -49.6558
-27.797001 -12.6 -49.180599
-27.132 -12.6 -48.536201
-26.466999 -12.6 -47.591202
-25.802 -12.6 -44.577999
-25.136999 -12.6 -44.025398
-24.472 -12.6 -44.331402
-23.806999 -12.6 -44.410599
-23.142 -12.6 -43.899399
-22.476999 -12.6 -52.116402
-21.812 -12.6 -51.563801
-21.146999 -12.6 -43.7374
-20.482 -12.6 -43.741001
-19.816999 -12.6 -43.462002
-19.152 -12.6 -43.417
-18.487 -12.6 -43.165001
-17.822001 -12.6 -43.1236
-17.157 -12.6 -43.048
-16.492001 -12.6 -42.9058
-15.827 -12.6 -42.916599
-15.162 -12.6 -43.1632
-14.497 -12.6 -43.240601
-13.832 -12.6 -43.292801
-13.167 -12.6 -42.8932
-12.502 -12.6 -43.0084
-11.837 -12.6 -42.799599
-11.172 -12.6 -42.781601
-10.507 -12.6 -42.821201
-9.842 -12.6 -42.988602
-9.177 -12.6 -43.094799
-8.5120001 -12.6 -43.337799
-7.8470001 -12.6 -43.152401
-7.1820002 -12.6 -43.100201
-6.5170002 -12.6 -42.950802
-5.8520002 -12.6 -42.9184
-5.1869998 -12.6 -43.0084
-4.5219998 -12.6 -42.614201
-3.8570001 -12.6 -42.966999
-3.1919999 -12.6 -42.824799
-2.527 -12.6 -42.648399
-1.862 -12.6 -42.628601
-1.197 -12.6 -42.533199
-0.53200001 -12.6 -42.916599
0.133 -12.6 -42.785198
0.79799998 -12.6 -42.716801
1.4630001 -12.6 -42.506199
2.128 -12.6 -42.9454
2.793 -12.6 -42.997601
3.4579999 -12.6 -43.024601
4.1230001 -12.6 -42.769001
4.7880001 -12.6 -42.6772
5.4530001 -12.6 -42.5494
6.118 -12.6 -42.578201
6.783 -12.6 -42.567402
7.448 -12.6 -42.733002
8.1129999 -12.6 -42.581799
8.7779999 -12.6 -42.605202
9.4429998 -12.6 -42.5242
10.108 -12.6 -42.6106
10.773 -12.6 -42.185799
11.438 -12.6 -42.155201
12.103 -12.6 -42.245201
12.768 -12.6 -42.529598
13.433 -12.6 -42.3964
14.098 -12.6 -42.292
14.763 -12.6 -42.223598
15.428 -12.6 -42.3568
16.093 -12.6 -42.382
16.757999 -12.6 -42.264999
17.423 -12.6 -42.288399
18.087999 -12.6 -42.142601
18.753 -12.6 -41.8204
19.417999 -12.6 -41.824001
20.083 -12.6 -41.877998
20.747999 -12.6 -41.7826
21.413 -12.6 -41.8564
22.077999 -12.6 -41.9842
22.743 -12.6 -42.0868
23.408001 -12.6 -41.773602
24.073 -12.6 -41.8564
24.738001 -12.6 -42.0238
25.403 -12.6 -42.018398
26.068001 -12.6 -41.9482
26.733 -12.6 -41.9608
27.398001 -12.6 -42.349602
28.063 -12.6 -42.243401
28.728001 -12.6 -42.043598
29.393 -12.6 -42.097599
30.058001 -12.6 -42.171398
30.723 -12.6 -42.531399
31.388 -12.6 -42.786999
32.053001 -12.6 -42.742001
32.717999 -12.6 -43.021
33.382999 -12.6 -43.656399
34.048 -12.6 -44.907398
34.713001 -12.6 -45.465401
35.377998 -12.6 -45.792999
36.042999 -12.6 -46.1404
36.708 -12.6 -46.9576
37.373001 -12.6 -47.215
38.037998 -12.6 -47.917
38.702999 -12.6 -48.896198
39.368 -12.6 -49.250801
40.033001 -12.6 -49.519001
40.698002 -12.6 -49.607201
41.362999 -12.6 -49.747601
42.028 -12.6 -50.185001
42.693001 -12.6 -50.1562
43.358002 -12.6 -50.418999
44.022999 -12.6 -50.6008
44.688 -12.6 -50.696201
45.353001 -12.6 -50.8834
46.018002 -12.6 -51.180401
46.682999 -12.6 -51.385601
47.348 -12.6 -51.774399
48.013 -12.6 -51.8428
48.678001 -12.6 -51.979599
49.342999 -12.6 -52.7626
50.007999 -12.6 -53.214401
50.673 -12.6 -53.5186
51.338001 -12.6 -53.9002
52.002998 -12.6 -54.110802
52.667999 -12.6 -54.4258
53.333 -12.6 -55.219601
53.998001 -12.6 -55.6786
54.662998 -12.6 -56.211399
55.327999 -12.6 -56.690201
55.993 -12.6 -57.168999
56.658001 -12.6 -57.435398
57.323002 -12.6 -57.527199
57.987999 -12.6 -58.466801
58.653 -12.6 -58.2724
59.318001 -12.6 -58.6954
59.983002 -12.6 -58.754799
60.647999 -12.6 -58.675598
61.313 -12.6 -58.832199
61.978001 -12.6 -58.7206
62.643002 -12.6 -59.240799
63.307999 -12.6 -59.5882
63.973 -12.6 -59.658401
64.638 -12.6 -60.403599
65.303001 -12.6 -61.388199
65.968002 -12.6 -61.690601
66.633003 -12.6 -61.938999
67.297997 -12.6 -62.297199
67.962997 -12.6 -62.722
68.627998 -12.6 -63.148602
69.292999 -12.6 -63.694
69.958 -12.6 -64.286201
70.623001 -12.6 -64.5634
71.288002 -12.6 -64.930603
71.953003 -12.6 -65.751404
72.617996 -12.6 -65.924202
73.282997 -12.6 -66.033997
73.947998 -12.6 -66.374199
74.612999 -12.6 -66.6604
75.278 -12.6 -66.667603
75.943001 -12.6 -66.844002
76.608002 -12.6 -66.9646
77.273003 -12.6 -67.745796
77.938004 -12.6 -inf
78.602997 -12.6 -inf
79.267998 -12.6 -inf
-62.376999 -11.88 -inf
-61.712002 -11.88 -74.956596
-61.047001 -11.88 -74.632599
-60.382 -11.88 -73.710999
-59.716999 -11.88 -72.638199
-59.051998 -11.88 -72.224197
-58.387001 -11.88 -71.583397
-57.722 -11.88 -71.268402
-57.056999 -11.88 -70.890404
-56.391998 -11.88 -70.3666
-55.727001 -11.88 -69.7798
-55.062 -11.88 -69.373001
-54.396999 -11.88 -68.823997
-53.731998 -11.88 -68.329002
-53.067001 -11.88 -67.830399
-52.402 -11.88 -67.292198
-51.737 -11.88 -66.871002
-51.071999 -11.88 -66.313004
-50.407001 -11.88 -65.632599
-49.742001 -11.88 -65.060204
-49.077 -11.88 -64.514801
-48.411999 -11.88 -63.978401
-47.747002 -11.88 -63.391602
-47.082001 -11.88 -62.842602
-46.417 -11.88 -62.356602
-45.751999 -11.88 -61.9534
-45.087002 -11.88 -61.485401
-44.422001 -11.88 -61.044399
-43.757 -11.88 -60.374802
-43.091999 -11.88 -59.865398
-42.426998 -11.88 -59.687199
-41.762001 -11.88 -59.251598
-41.097 -11.88 -58.6828
-40.431999 -11.88 -58.1968
-39.766998 -11.88 -57.908798
-39.102001 -11.88 -57.379601
-38.437 -11.88 -57.168999
-37.771999 -11.88 -56.657799
-37.106998 -11.88 -56.094398
-36.442001 -11.88 -55.7794
-35.777 -11.88 -55.5868
-35.112 -11.88 -54.9622
-34.446999 -11.88 -54.265598
-33.782001 -11.88 -53.740002
-33.117001 -11.88 -53.3242
-32.452 -11.88 -52.773399
-31.787001 -11.88 -52.2784
-31.122 -11.88 -51.722198
-30.457001 -11.88 -51.220001
-29.792 -11.88 -50.638599
-29.127001 -11.88 -50.242599
-28.462 -11.88 -49.8484
-27.797001 -11.88 -49.249001
-27.132 -11.88 -48.550598
-26.466999 -11.88 -47.067402
-25.802 -11.88 -44.5924
-25.136999 -11.88 -43.861599
-24.472 -11.88 -44.144199
-23.806999 -11.88 -44.090199
-23.142 -11.88 -43.861599
-22.476999 -11.88 -52.116402
-21.812 -11.88 -51.849998
-21.146999 -11.88 -51.788799
-20.482 -11.88 -43.818401
-19.816999 -11.88 -43.695999
-19.152 -11.88 -43.654598
-18.487 -11.88 -43.368401
-17.822001 -11.88 -43.242401
-17.157 -11.88 -43.208199
-16.492001 -11.88 -43.019199
-15.827 -11.88 -43.127201
-15.162 -11.88 -43.204601
-14.497 -11.88 -43.307201
-13.832 -11.88 -43.287399
-13.167 -11.88 -42.868
-12.502 -11.88 -42.846401
-11.837 -11.88 -42.859001
-11.172 -11.88 -42.949001
-10.507 -11.88 -42.9076
-9.842 -11.88 -42.9076
-9.177 -11.88 -43.1884
-8.5120001 -11.88 -43.310799
-7.8470001 -11.88 -43.231602
-7.1820002 -11.88 -43.402599
-6.5170002 -11.88 -43.202801
-5.8520002 -11.88 -42.8554
-5.1869998 -11.88 -42.999401
-4.5219998 -11.88 -42.876999
-3.8570001 -11.88 -43.087601
-3.1919999 -11.88 -42.851799
-2.527 -11.88 -42.715
-1.862 -11.88 -42.441399
-1.197 -11.88 -42.373001
-0.53200001 -11.88 -42.734798
0.133 -11.88 -42.781601
0.79799998 -11.88 -42.734798
1.4630001 -11.88 -42.576401
2.128 -11.88 -42.875198
2.793 -11.88 -43.0354
3.4579999 -11.88 -43.049801
4.1230001 -11.88 -42.7384
4.7880001 -11.88 -42.808601
5.4530001 -11.88 -42.736599
6.118 -11.88 -42.889599
6.783 -11.88 -42.797798
7.448 -11.88 -42.7402
8.1129999 -11.88 -42.5476
8.7779999 -11.88 -42.495399
9.4429998 -11.88 -42.520599
10.108 -11.88 -42.333401
10.773 -11.88 -42.313599
11.438 -11.88 -42.295601
12.103 -11.88 -42.520599
12.768 -11.88 -42.378399
13.433 -11.88 -42.4216
14.098 -11.88 -42.601601
14.763 -11.88 -42.389198
15.428 -11.88 -42.3064
16.093 -11.88 -42.3964
16.757999 -11.88 -42.284801
17.423 -11.88 -42.349602
18.087999 -11.88 -42.187599
18.753 -11.88 -41.9482
19.417999 -11.88 -41.836601
20.083 -11.88 -41.953602
20.747999 -11.88 -41.950001
21.413 -11.88 -41.955399
22.077999 -11.88 -42.119202
22.743 -11.88 -42.180401
23.408001 -11.88 -41.987801
24.073 -11.88 -41.9356
24.738001 -11.88 -42.021999
25.403 -11.88 -42.0634
26.068001 -11.88 -41.989601
26.733 -11.88 -42.194801
27.398001 -11.88 -42.187599
28.063 -11.88 -42.273998
28.728001 -11.88 -42.183998
29.393 -11.88 -42.209202
30.058001 -11.88 -42.367599
30.723 -11.88 -42.551201
31.388 -11.88 -42.578201
32.053001 -11.88 -42.7654
32.717999 -11.88 -42.927399
33.382999 -11.88 -43.640202
34.048 -11.88 -44.9632
34.713001 -11.88 -45.353802
35.377998 -11.88 -45.604
36.042999 -11.88 -46.122398
36.708 -11.88 -46.6786
37.373001 -11.88 -47.1106
38.037998 -11.88 -47.780201
38.702999 -11.88 -48.822399
39.368 -11.88 -49.364201
40.033001 -11.88 -49.330002
40.698002 -11.88 -49.7836
41.362999 -11.88 -49.825001
42.028 -11.88 -49.979801
42.693001 -11.88 -50.237202
43.358002 -11.88 -50.1544
44.022999 -11.88 -50.872601
44.688 -11.88 -50.786201
45.353001 -11.88 -51.004002
46.018002 -11.88 -51.288399
46.682999 -11.88 -51.252399
47.348 -11.88 -51.576401
48.013 -11.88 -51.7654
48.678001 -11.88 -52.3144
49.342999 -11.88 -52.6744
50.007999 -11.88 -53.084801
50.673 -11.88 -53.4412
51.338001 -11.88 -53.783199
52.002998 -11.88 -54.031601
52.667999 -11.88 -54.452801
53.333 -11.88 -55.055801
53.998001 -11.88 -55.547199
54.662998 -11.88 -56.333801
55.327999 -11.88 -56.772999
55.993 -11.88 -57.285999
56.658001 -11.88 -58.076199
57.323002 -11.88 -57.8512
57.987999 -11.88 -58.175201
58.653 -11.88 -58.4272
59.318001 -11.88 -58.598202
59.983002 -11.88 -58.697201
60.647999 -11.88 -58.5658
61.313 -11.88 -58.7458
61.978001 -11.88 -59.0392
62.643002 -11.88 -59.1166
63.307999 -11.88 -59.3452
63.973 -11.88 -59.661999
64.638 -11.88 -60.3298
65.303001 -11.88 -61.335999
65.968002 -11.88 -61.641998
66.633003 -11.88 -62.016399
67.297997 -11.88 -62.259399
67.962997 -11.88 -62.7724
68.627998 -11.88 -63.224201
69.292999 -11.88 -63.7066
69.958 -11.88 -64.1782
70.623001 -11.88 -64.759598
71.288002 -11.88 -65.216797
71.953003 -11.88 -65.4328
72.617996 -11.88 -65.915199
73.282997 -11.88 -66.136597
73.947998 -11.88 -66.395798
74.612999 -11.88 -67.232803
75.278 -11.88 -67.132004
75.943001 -11.88 -67.454201
76.608002 -11.88 -67.344398
77.273003 -11.88 -67.956398
77.938004 -11.88 -inf
78.602997 -11.88 -inf
79.267998 -11.88 -inf
-62.376999 -11.16 -inf
-61.712002 -11.16 -74.996201
-61.047001 -11.16 -74.295998
-60.382 -11.16 -73.639
-59.716999 -11.16 -72.8452
-59.051998 -11.16 -72.366402
-58.387001 -11.16 -71.687798
-57.722 -11.16 -71.317001
-57.056999 -11.16 -71.209
-56.391998 -11.16 -70.483597
-55.727001 -11.16 -69.923798
-55.062 -11.16 -69.376602
-54.396999 -11.16 -68.931999
-53.731998 -11.16 -68.280403
-53.067001 -11.16 -67.7332
-52.402 -11.16 -67.108597
-51.737 -11.16 -66.611801
-51.071999 -11.16 -66.098801
-50.407001 -11.16 -65.448997
-49.742001 -11.16 -64.945
-49.077 -11.16 -64.4338
-48.411999 -11.16 -63.989201
-47.747002 -11.16 -63.3736
-47.082001 -11.16 -62.815601
-46.417 -11.16 -62.473598
-45.751999 -11.16 -61.870602
-45.087002 -11.16 -61.444
-44.422001 -11.16 -61.130798
-43.757 -11.16 -60.4972
-43.091999 -11.16 -60.185799
-42.426998 -11.16 -59.683601
-41.762001 -11.16 -59.2444
-41.097 -11.16 -58.736801
-40.431999 -11.16 -58.153599
-39.766998 -11.16 -57.865601
-39.102001 -11.16 -57.482201
-38.437 -11.16 -57.1096
-37.771999 -11.16 -56.787399
-37.106998 -11.16 -56.130402
-36.442001 -11.16 -55.666
-35.777 -11.16 -55.3978
-35.112 -11.16 -54.938801
-34.446999 -11.16 -54.402401
-33.782001 -11.16 -53.871399
-33.117001 -11.16 -53.389
-32.452 -11.16 -52.899399
-31.787001 -11.16 -52.4062
-31.122 -11.16 -51.938202
-30.457001 -11.16 -51.445
-29.792 -11.16 -50.834801
-29.127001 -11.16 -50.494598
-28.462 -11.16 -50.035599
-27.797001 -11.16 -49.466801
-27.132 -11.16 -48.9286
-26.466999 -11.16 -47.425598
-25.802 -11.16 -44.334999
-25.136999 -11.16 -43.911999
-24.472 -11.16 -43.931801
-23.806999 -11.16 -45.107201
-23.142 -11.16 -47.3536
-22.476999 -11.16 -44.236
-21.812 -11.16 -51.563801
-21.146999 -11.16 -52.807598
-20.482 -11.16 -52.807598
-19.816999 -11.16 -43.8004
-19.152 -11.16 -43.9174
-18.487 -11.16 -43.528599
-17.822001 -11.16 -43.368401
-17.157 -11.16 -43.388199
-16.492001 -11.16 -43.267601
-15.827 -11.16 -43.244202
-15.162 -11.16 -43.197399
-14.497 -11.16 -43.312599
-13.832 -11.16 -43.231602
-13.167 -11.16 -43.044399
-12.502 -11.16 -42.931
-11.837 -11.16 -42.911201
-11.172 -11.16 -42.985001
-10.507 -11.16 -42.841
-9.842 -11.16 -43.013802
-9.177 -11.16 -42.972401
-8.5120001 -11.16 -43.2766
-7.8470001 -11.16 -43.382801
-7.1820002 -11.16 -43.433201
-6.5170002 -11.16 -43.438599
-5.8520002 -11.16 -43.040798
-5.1869998 -11.16 -42.9832
-4.5219998 -11.16 -42.9076
-3.8570001 -11.16 -43.2784
-3.1919999 -11.16 -43.1092
-2.527 -11.16 -42.616001
-1.862 -11.16 -42.666401
-1.197 -11.16 -42.7006
-0.53200001 -11.16 -43.134399
0.133 -11.16 -42.923801
0.79799998 -11.16 -42.788799
1.4630001 -11.16 -42.616001
2.128 -11.16 -42.778
2.793 -11.16 -42.796001
3.4579999 -11.16 -43.051601
4.1230001 -11.16 -42.8554
4.7880001 -11.16 -42.977798
5.4530001 -11.16 -42.594398
6.118 -11.16 -42.871601
6.783 -11.16 -42.6772
7.448 -11.16 -42.578201
8.1129999 -11.16 -42.538601
8.7779999 -11.16 -42.619598
9.4429998 -11.16 -42.603401
10.108 -11.16 -42.518799
10.773 -11.16 -42.562
11.438 -11.16 -42.3172
12.103 -11.16 -42.5368
12.768 -11.16 -42.4846
13.433 -11.16 -42.472
14.098 -11.16 -42.659199
14.763 -11.16 -42.621399
15.428 -11.16 -42.580002
16.093 -11.16 -42.493599
16.757999 -11.16 -42.5872
17.423 -11.16 -42.4468
18.087999 -11.16 -42.3064
18.753 -11.16 -42.284801
19.417999 -11.16 -42.158798
20.083 -11.16 -41.924801
20.747999 -11.16 -42.052601
21.413 -11.16 -42.157001
22.077999 -11.16 -42.0886
22.743 -11.16 -42.049
23.408001 -11.16 -42.302799
24.073 -11.16 -42.052601
24.738001 -11.16 -42.047199
25.403 -11.16 -42.002201
26.068001 -11.16 -42.077801
26.733 -11.16 -42.256001
27.398001 -11.16 -42.412601
28.063 -11.16 -42.310001
28.728001 -11.16 -42.500801
29.393 -11.16 -42.499001
30.058001 -11.16 -42.543999
30.723 -11.16 -42.4324
31.388 -11.16 -42.632198
32.053001 -11.16 -42.7006
32.717999 -11.16 -43.012001
33.382999 -11.16 -43.778801
34.048 -11.16 -44.691399
34.713001 -11.16 -45.173801
35.377998 -11.16 -45.605801
36.042999 -11.16 -46.048599
36.708 -11.16 -46.6516
37.373001 -11.16 -47.123199
38.037998 -11.16 -47.881001
38.702999 -11.16 -48.833199
39.368 -11.16 -49.3102
40.033001 -11.16 -49.468601
40.698002 -11.16 -49.591
41.362999 -11.16 -49.934799
42.028 -11.16 -50.233601
42.693001 -11.16 -50.374001
43.358002 -11.16 -50.440601
44.022999 -11.16 -50.498199
44.688 -11.16 -50.591801
45.353001 -11.16 -50.9734
46.018002 -11.16 -51.194801
46.682999 -11.16 -51.0742
47.348 -11.16 -51.351398
48.013 -11.16 -51.686199
48.678001 -11.16 -52.262199
49.342999 -11.16 -52.561001
50.007999 -11.16 -52.9534
50.673 -11.16 -53.4034
51.338001 -11.16 -53.722
52.002998 -11.16 -54.114399
52.667999 -11.16 -54.395199
53.333 -11.16 -55.147598
53.998001 -11.16 -55.687599
54.662998 -11.16 -56.3536
55.327999 -11.16 -57.086201
55.993 -11.16 -57.347198
56.658001 -11.16 -57.885399
57.323002 -11.16 -58.167999
57.987999 -11.16 -58.096001
58.653 -11.16 -58.317402
59.318001 -11.16 -58.722401
59.983002 -11.16 -58.659401
60.647999 -11.16 -58.650398
61.313 -11.16 -58.837601
61.978001 -11.16 -59.0536
62.643002 -11.16 -59.289398
63.307999 -11.16 -59.408199
63.973 -11.16 -59.809601
64.638 -11.16 -60.603401
65.303001 -11.16 -61.184799
65.968002 -11.16 -61.598801
66.633003 -11.16 -61.845402
67.297997 -11.16 -62.302601
67.962997 -11.16 -62.738201
68.627998 -11.16 -63.368198
69.292999 -11.16 -63.758801
69.958 -11.16 -64.583199
70.623001 -11.16 -64.770401
71.288002 -11.16 -65.357201
71.953003 -11.16 -65.529999
72.617996 -11.16 -65.956596
73.282997 -11.16 -66.431801
73.947998 -11.16 -66.968201
74.612999 -11.16 -67.202202
75.278 -11.16 -67.295799
75.943001 -11.16 -67.373199
76.608002 -11.16 -67.513603
77.273003 -11.16 -68.062599
77.938004 -11.16 -inf
78.602997 -11.16 -inf
79.267998 -11.16 -inf
-62.376999 -10.44 -inf
-61.712002 -10.44 -74.958397
-61.047001 -10.44 -74.771202
-60.382 -10.44 -74.081802
-59.716999 -10.44 -73.036003
-59.051998 -10.44 -72.753403
-58.387001 -10.44 -71.957802
-57.722 -10.44 -71.423203
-57.056999 -10.44 -70.962402
-56.391998 -10.44 -70.604202
-55.727001 -10.44 -69.914803
-55.062 -10.44 -69.282997
-54.396999 -10.44 -68.818604
-53.731998 -10.44 -68.368599
-53.067001 -10.44 -67.684601
-52.402 -10.44 -66.989799
-51.737 -10.44 -66.6082
-51.071999 -10.44 -66.064598
-50.407001 -10.44 -65.348198
-49.742001 -10.44 -64.934196
-49.077 -10.44 -64.516602
-48.411999 -10.44 -64.041397
-47.747002 -10.44 -63.499599
-47.082001 -10.44 -62.9776
-46.417 -10.44 -62.522202
-45.751999 -10.44 -61.973202
-45.087002 -10.44 -61.460201
-44.422001 -10.44 -60.958
-43.757 -10.44 -60.619598
-43.091999 -10.44 -60.2272
-42.426998 -10.44 -59.687199
-41.762001 -10.44 -59.253399
-41.097 -10.44 -58.8862
-40.431999 -10.44 -58.441601
-39.766998 -10.44 -58.023998
-39.102001 -10.44 -57.588402
-38.437 -10.44 -57.170799
-37.771999 -10.44 -56.870201
-37.106998 -10.44 -56.332001
-36.442001 -10.44 -55.802799
-35.777 -10.44 -55.2826
-35.112 -10.44 -54.9874
-34.446999 -10.44 -54.5536
-33.782001 -10.44 -54.089199
-33.117001 -10.44 -53.574402
