# .PCD v0.7 - Point Cloud Data file format
VERSION 0.7
FIELDS x y z
SIZE 4 4 4
TYPE F F F
COUNT 1 1 1
WIDTH 1750
HEIGHT 1
VIEWPOINT 0 0 0 1 0 0 0
POINTS 1750
DATA ascii
52.667999 3.5999999 -49.112202
53.333 3.5999999 -49.688202
53.998001 3.5999999 -50.413601
54.662998 3.5999999 -51.259602
55.327999 3.5999999 -52.094799
55.993 3.5999999 -53.097401
56.658001 3.5999999 -53.7598
57.323002 3.5999999 -54.467201
57.987999 3.5999999 -55.306
58.653 3.5999999 -56.1394
59.318001 3.5999999 -56.915199
59.983002 3.5999999 -57.950199
60.647999 3.5999999 -58.904202
61.313 3.5999999 -60.236198
61.978001 3.5999999 -61.400799
62.643002 3.5999999 -62.795799
63.307999 3.5999999 -65.195198
63.973 3.5999999 -inf
64.638 3.5999999 -inf
65.303001 3.5999999 -inf
65.968002 3.5999999 -inf
66.633003 3.5999999 -inf
67.297997 3.5999999 -inf
67.962997 3.5999999 -inf
68.627998 3.5999999 -inf
69.292999 3.5999999 -inf
69.958 3.5999999 -inf
70.623001 3.5999999 -inf
71.288002 3.5999999 -inf
71.953003 3.5999999 -inf
72.617996 3.5999999 -inf
-77.671997 4.3200002 -inf
-77.007004 4.3200002 -inf
-76.342003 4.3200002 -inf
-75.677002 4.3200002 -inf
-75.012001 4.3200002 -inf
-74.347 4.3200002 -inf
-73.681999 4.3200002 -inf
-73.016998 4.3200002 -inf
-72.351997 4.3200002 -inf
-71.686996 4.3200002 -inf
-71.022003 4.3200002 -inf
-70.357002 4.3200002 -inf
-69.692001 4.3200002 -inf
-69.027 4.3200002 -inf
-68.362 4.3200002 -inf
-67.696999 4.3200002 -inf
-67.031998 4.3200002 -inf
-66.366997 4.3200002 -inf
-65.702003 4.3200002 -inf
-65.037003 4.3200002 -inf
-64.372002 4.3200002 -inf
-63.707001 4.3200002 -inf
-63.042 4.3200002 -inf
-62.376999 4.3200002 -inf
-61.712002 4.3200002 -inf
-61.047001 4.3200002 -inf
-60.382 4.3200002 -inf
-59.716999 4.3200002 -inf
-59.051998 4.3200002 -inf
-58.387001 4.3200002 -66.646004
-57.722 4.3200002 -64.905403
-57.056999 4.3200002 -64.295197
-56.391998 4.3200002 -63.805599
-55.727001 4.3200002 -60.608799
-55.062 4.3200002 -59.797001
-54.396999 4.3200002 -59.255199
-53.731998 4.3200002 -58.511799
-53.067001 4.3200002 -57.8116
-52.402 4.3200002 -56.992599
-51.737 4.3200002 -56.319401
-51.071999 4.3200002 -55.968399
-50.407001 4.3200002 -56.1754
-49.742001 4.3200002 -55.612
-49.077 4.3200002 -54.505001
-48.411999 4.3200002 -53.615799
-47.747002 4.3200002 -52.949799
-47.082001 4.3200002 -52.807598
-46.417 4.3200002 -52.292801
-45.751999 4.3200002 -51.733002
-45.087002 4.3200002 -50.924801
-44.422001 4.3200002 -49.9114
-43.757 4.3200002 -49.241798
-43.091999 4.3200002 -48.817001
-42.426998 4.3200002 -48.4678
-41.762001 4.3200002 -48.0844
-41.097 4.3200002 -47.783798
-40.431999 4.3200002 -46.736198
-39.766998 4.3200002 -46.086399
-39.102001 4.3200002 -45.875801
-38.437 4.3200002 -45.395199
-37.771999 4.3200002 -45.006401
-37.106998 4.3200002 -44.5168
-36.442001 4.3200002 -44.205399
-35.777 4.3200002 -43.960602
-35.112 4.3200002 -43.1236
-34.446999 4.3200002 -43.292801
-33.782001 4.3200002 -42.554798
-33.117001 4.3200002 -42.103001
-32.452 4.3200002 -42.128201
-31.787001 4.3200002 -41.246201
-31.122 4.3200002 -41.1688
-30.457001 4.3200002 -41.5
-29.792 4.3200002 -40.652199
-29.127001 4.3200002 -40.186001
-28.462 4.3200002 -39.512798
-27.797001 4.3200002 -39.1492
-27.132 4.3200002 -38.8018
-26.466999 4.3200002 -38.243801
-25.802 4.3200002 -38.125
-25.136999 4.3200002 -38.096199
-24.472 4.3200002 -37.486
-23.806999 4.3200002 -36.753399
-23.142 4.3200002 -36.173801
-22.476999 4.3200002 -35.984798
-21.812 4.3200002 -35.954201
-21.146999 4.3200002 -35.514999
-20.482 4.3200002 -35.365601
-19.816999 4.3200002 -34.973202
-19.152 4.3200002 -34.625801
-18.487 4.3200002 -33.999401
-17.822001 4.3200002 -33.734798
-17.157 4.3200002 -33.146198
-16.492001 4.3200002 -32.861801
-15.827 4.3200002 -32.4118
-15.162 4.3200002 -31.787201
-14.497 4.3200002 -31.659401
-13.832 4.3200002 -31.652201
-13.167 4.3200002 -31.558599
-12.502 4.3200002 -31.468599
-11.837 4.3200002 -31.281401
-11.172 4.3200002 -31.2472
-10.507 4.3200002 -31.052799
-9.842 4.3200002 -31.0888
-9.177 4.3200002 -31.141001
-8.5120001 4.3200002 -30.969999
-7.8470001 4.3200002 -31.045601
-7.1820002 4.3200002 -31.160801
-6.5170002 4.3200002 -31.007799
-5.8520002 4.3200002 -30.9286
-5.1869998 4.3200002 -31.110399
-4.5219998 4.3200002 -31.1842
-3.8570001 4.3200002 -31.052799
-3.1919999 4.3200002 -30.997
-2.527 4.3200002 -30.9484
-1.862 4.3200002 -31.0474
-1.197 4.3200002 -31.2598
-0.53200001 4.3200002 -31.295799
0.133 4.3200002 -31.4182
0.79799998 4.3200002 -31.5226
1.4630001 4.3200002 -31.479401
2.128 4.3200002 -31.410999
2.793 4.3200002 -31.0762
3.4579999 4.3200002 -32.145401
4.1230001 4.3200002 -32.773602
4.7880001 4.3200002 -32.6908
5.4530001 4.3200002 -33.441399
6.118 4.3200002 -33.335201
6.783 4.3200002 -33.403599
7.448 4.3200002 -33.374802
8.1129999 4.3200002 -33.526001
8.7779999 4.3200002 -33.5602
9.4429998 4.3200002 -33.527802
10.108 4.3200002 -33.616001
10.773 4.3200002 -34.080399
11.438 4.3200002 -33.903999
12.103 4.3200002 -33.9058
12.768 4.3200002 -34.002998
13.433 4.3200002 -34.327
14.098 4.3200002 -34.4944
14.763 4.3200002 -34.721199
15.428 4.3200002 -35.117199
16.093 4.3200002 -34.676201
16.757999 4.3200002 -34.641998
17.423 4.3200002 -34.976799
18.087999 4.3200002 -34.989399
18.753 4.3200002 -35.423199
19.417999 4.3200002 -35.8354
20.083 4.3200002 -36.227798
20.747999 4.3200002 -36.200802
21.413 4.3200002 -36.339401
22.077999 4.3200002 -36.549999
22.743 4.3200002 -36.5518
23.408001 4.3200002 -36.648998
24.073 4.3200002 -37.068401
24.738001 4.3200002 -37.428398
25.403 4.3200002 -37.219601
26.068001 4.3200002 -37.541801
26.733 4.3200002 -37.973801
27.398001 4.3200002 -38.449001
28.063 4.3200002 -38.945801
28.728001 4.3200002 -38.944
29.393 4.3200002 -39.178001
30.058001 4.3200002 -39.799
30.723 4.3200002 -40.006001
31.388 4.3200002 -40.213001
32.053001 4.3200002 -40.2994
32.717999 4.3200002 -40.150002
33.382999 4.3200002 -40.522598
34.048 4.3200002 -40.618
34.713001 4.3200002 -40.896999
35.377998 4.3200002 -40.905998
36.042999 4.3200002 -41.0662
36.708 4.3200002 -41.404598
37.373001 4.3200002 -41.778999
38.037998 4.3200002 -42.043598
38.702999 4.3200002 -42.417999
39.368 4.3200002 -42.958
40.033001 4.3200002 -43.141602
40.698002 4.3200002 -43.249599
41.362999 4.3200002 -43.9426
42.028 4.3200002 -44.365601
42.693001 4.3200002 -44.766998
43.358002 4.3200002 -44.851601
44.022999 4.3200002 -45.199001
44.688 4.3200002 -45.377201
45.353001 4.3200002 -45.6418
46.018002 4.3200002 -45.784
46.682999 4.3200002 -45.951401
47.348 4.3200002 -46.046799
48.013 4.3200002 -46.732601
48.678001 4.3200002 -46.702
49.342999 4.3200002 -47.121399
50.007999 4.3200002 -47.762199
50.673 4.3200002 -48.050201
51.338001 4.3200002 -48.307598
52.002998 4.3200002 -48.3148
52.667999 4.3200002 -48.736
53.333 4.3200002 -49.117599
53.998001 4.3200002 -49.799801
54.662998 4.3200002 -50.683601
55.327999 4.3200002 -51.614201
55.993 4.3200002 -52.2244
56.658001 4.3200002 -53.102798
57.323002 4.3200002 -54.146801
57.987999 4.3200002 -54.749802
58.653 4.3200002 -55.532799
59.318001 4.3200002 -56.526402
59.983002 4.3200002 -57.4408
60.647999 4.3200002 -58.418201
61.313 4.3200002 -59.374001
61.978001 4.3200002 -60.553001
62.643002 4.3200002 -61.974998
63.307999 4.3200002 -63.281799
63.973 4.3200002 -inf
64.638 4.3200002 -inf
65.303001 4.3200002 -inf
65.968002 4.3200002 -inf
66.633003 4.3200002 -inf
67.297997 4.3200002 -inf
67.962997 4.3200002 -inf
68.627998 4.3200002 -inf
69.292999 4.3200002 -inf
69.958 4.3200002 -inf
70.623001 4.3200002 -inf
71.288002 4.3200002 -inf
71.953003 4.3200002 -inf
72.617996 4.3200002 -inf
-77.671997 5.04 -inf
-77.007004 5.04 -inf
-76.342003 5.04 -inf
-75.677002 5.04 -inf
-75.012001 5.04 -inf
-74.347 5.04 -inf
-73.681999 5.04 -inf
-73.016998 5.04 -inf
-72.351997 5.04 -inf
-71.686996 5.04 -inf
-71.022003 5.04 -inf
-70.357002 5.04 -inf
-69.692001 5.04 -inf
-69.027 5.04 -inf
-68.362 5.04 -inf
-67.696999 5.04 -inf
-67.031998 5.04 -inf
-66.366997 5.04 -inf
-65.702003 5.04 -inf
-65.037003 5.04 -inf
-64.372002 5.04 -inf
-63.707001 5.04 -inf
-63.042 5.04 -inf
-62.376999 5.04 -inf
-61.712002 5.04 -inf
-61.047001 5.04 -inf
-60.382 5.04 -inf
-59.716999 5.04 -inf
-59.051998 5.04 -inf
-58.387001 5.04 -66.307602
-57.722 5.04 -65.029602
-57.056999 5.04 -64.284401
-56.391998 5.04 -63.301601
-55.727001 5.04 -61.260399
-55.062 5.04 -60.1912
-54.396999 5.04 -59.6548
-53.731998 5.04 -58.805199
-53.067001 5.04 -58.074402
-52.402 5.04 -57.3022
-51.737 5.04 -56.690201
-51.071999 5.04 -56.2258
-50.407001 5.04 -56.261799
-49.742001 5.04 -55.5994
-49.077 5.04 -54.407799
-48.411999 5.04 -53.693199
-47.747002 5.04 -53.0182
-47.082001 5.04 -52.714001
-46.417 5.04 -52.272999
-45.751999 5.04 -51.9076
-45.087002 5.04 -51.005798
-44.422001 5.04 -50.3074
-43.757 5.04 -49.709801
-43.091999 5.04 -49.139198
-42.426998 5.04 -48.637001
-41.762001 5.04 -48.284199
-41.097 5.04 -47.594799
-40.431999 5.04 -47.080002
-39.766998 5.04 -46.655201
-39.102001 5.04 -46.188999
-38.437 5.04 -45.852402
-37.771999 5.04 -45.109001
-37.106998 5.04 -44.5564
-36.442001 5.04 -44.173
-35.777 5.04 -43.858002
-35.112 5.04 -43.335999
-34.446999 5.04 -42.884201
-33.782001 5.04 -42.916599
-33.117001 5.04 -42.448601
-32.452 5.04 -42.0634
-31.787001 5.04 -41.563
-31.122 5.04 -41.240799
-30.457001 5.04 -41.075199
-29.792 5.04 -40.641399
-29.127001 5.04 -40.040199
-28.462 5.04 -40.050999
-27.797001 5.04 -39.233799
-27.132 5.04 -38.823399
-26.466999 5.04 -38.625401
-25.802 5.04 -38.436401
-25.136999 5.04 -38.0476
-24.472 5.04 -37.486
-23.806999 5.04 -37.055801
-23.142 5.04 -36.627399
-22.476999 5.04 -36.159401
-21.812 5.04 -35.626598
-21.146999 5.04 -35.640999
-20.482 5.04 -35.138802
-19.816999 5.04 -34.670799
-19.152 5.04 -34.440399
-18.487 5.04 -34.0336
-17.822001 5.04 -33.770802
-17.157 5.04 -33.4216
-16.492001 5.04 -32.950001
-15.827 5.04 -32.492802
-15.162 5.04 -32.240799
-14.497 5.04 -31.7584
-13.832 5.04 -31.780001
-13.167 5.04 -31.493799
-12.502 5.04 -31.306601
-11.837 5.04 -30.8908
-11.172 5.04 -31.1068
-10.507 5.04 -31.006001
-9.842 5.04 -31.0042
-9.177 5.04 -31.0096
-8.5120001 5.04 -30.975401
-7.8470001 5.04 -31.1464
-7.1820002 5.04 -31.2292
-6.5170002 5.04 -31.0438
-5.8520002 5.04 -30.910601
-5.1869998 5.04 -30.878201
-4.5219998 5.04 -30.829599
-3.8570001 5.04 -30.4678
-3.1919999 5.04 -30.764799
-2.527 5.04 -30.982599
-1.862 5.04 -30.725201
-1.197 5.04 -30.6064
-0.53200001 5.04 -30.5452
0.133 5.04 -30.6208
0.79799998 5.04 -30.601
1.4630001 5.04 -31.263399
2.128 5.04 -30.8836
2.793 5.04 -31.105
3.4579999 5.04 -31.4056
4.1230001 5.04 -32.41
4.7880001 5.04 -32.413601
5.4530001 5.04 -32.811401
6.118 5.04 -32.957199
6.783 5.04 -33.319
7.448 5.04 -33.374802
8.1129999 5.04 -33.598
8.7779999 5.04 -33.931
9.4429998 5.04 -34.114601
10.108 5.04 -33.949001
10.773 5.04 -33.9706
11.438 5.04 -33.941799
12.103 5.04 -33.734798
12.768 5.04 -33.974201
13.433 5.04 -34.2118
14.098 5.04 -34.195599
14.763 5.04 -34.638401
15.428 5.04 -34.373798
16.093 5.04 -34.375599
16.757999 5.04 -34.271198
17.423 5.04 -34.778801
18.087999 5.04 -34.859798
18.753 5.04 -35.034401
19.417999 5.04 -35.5312
20.083 5.04 -35.959599
20.747999 5.04 -36.213402
21.413 5.04 -36.472599
22.077999 5.04 -35.891201
22.743 5.04 -36.301601
23.408001 5.04 -36.713799
24.073 5.04 -36.991001
24.738001 5.04 -36.8974
25.403 5.04 -37.289799
26.068001 5.04 -37.5508
26.733 5.04 -37.890999
27.398001 5.04 -38.605598
28.063 5.04 -39.143799
28.728001 5.04 -38.5462
29.393 5.04 -39.181599
30.058001 5.04 -39.143799
30.723 5.04 -39.627998
31.388 5.04 -40.202202
32.053001 5.04 -39.923199
32.717999 5.04 -40.1968
33.382999 5.04 -40.457802
34.048 5.04 -40.546001
34.713001 5.04 -40.871799
35.377998 5.04 -40.778198
36.042999 5.04 -41.2066
36.708 5.04 -41.59
37.373001 5.04 -41.714199
38.037998 5.04 -42.284801
38.702999 5.04 -42.562
39.368 5.04 -42.824799
40.033001 5.04 -43.125401
40.698002 5.04 -43.632999
41.362999 5.04 -43.911999
42.028 5.04 -44.407001
42.693001 5.04 -44.938
43.358002 5.04 -45.639999
44.022999 5.04 -45.5266
44.688 5.04 -45.334
45.353001 5.04 -45.452801
46.018002 5.04 -45.645401
46.682999 5.04 -45.715599
47.348 5.04 -45.881199
48.013 5.04 -46.275398
48.678001 5.04 -46.502201
49.342999 5.04 -46.925201
50.007999 5.04 -47.414799
50.673 5.04 -48.258999
51.338001 5.04 -47.8918
52.002998 5.04 -47.915199
52.667999 5.04 -48.449799
53.333 5.04 -48.6964
53.998001 5.04 -49.396599
54.662998 5.04 -50.1022
55.327999 5.04 -50.8438
55.993 5.04 -51.7672
56.658001 5.04 -52.951599
57.323002 5.04 -53.745399
57.987999 5.04 -54.247601
58.653 5.04 -55.0648
59.318001 5.04 -55.862202
59.983002 5.04 -56.952999
60.647999 5.04 -57.8134
61.313 5.04 -58.4884
61.978001 5.04 -59.766399
62.643002 5.04 -61.170399
63.307999 5.04 -62.307999
63.973 5.04 -inf
64.638 5.04 -inf
65.303001 5.04 -inf
65.968002 5.04 -inf
66.633003 5.04 -inf
67.297997 5.04 -inf
67.962997 5.04 -inf
68.627998 5.04 -inf
69.292999 5.04 -inf
69.958 5.04 -inf
70.623001 5.04 -inf
71.288002 5.04 -inf
71.953003 5.04 -inf
72.617996 5.04 -inf
-77.671997 5.7600002 -inf
-77.007004 5.7600002 -inf
-76.342003 5.7600002 -inf
-75.677002 5.7600002 -inf
-75.012001 5.7600002 -inf
-74.347 5.7600002 -inf
-73.681999 5.7600002 -inf
-73.016998 5.7600002 -inf
-72.351997 5.7600002 -inf
-71.686996 5.7600002 -inf
-71.022003 5.7600002 -inf
-70.357002 5.7600002 -inf
-69.692001 5.7600002 -inf
-69.027 5.7600002 -inf
-68.362 5.7600002 -inf
-67.696999 5.7600002 -inf
-67.031998 5.7600002 -inf
-66.366997 5.7600002 -inf
-65.702003 5.7600002 -inf
-65.037003 5.7600002 -inf
-64.372002 5.7600002 -inf
-63.707001 5.7600002 -inf
-63.042 5.7600002 -inf
-62.376999 5.7600002 -inf
-61.712002 5.7600002 -inf
-61.047001 5.7600002 -inf
-60.382 5.7600002 -inf
-59.716999 5.7600002 -inf
-59.051998 5.7600002 -inf
-58.387001 5.7600002 -66.644203
-57.722 5.7600002 -65.2798
-57.056999 5.7600002 -64.495003
-56.391998 5.7600002 -63.726398
-55.727001 5.7600002 -62.362
-55.062 5.7600002 -60.6124
-54.396999 5.7600002 -60.004002
-53.731998 5.7600002 -59.458599
-53.067001 5.7600002 -58.2472
-52.402 5.7600002 -57.384998
-51.737 5.7600002 -56.990799
-51.071999 5.7600002 -56.756802
-50.407001 5.7600002 -56.332001
-49.742001 5.7600002 -55.595798
-49.077 5.7600002 -54.792999
-48.411999 5.7600002 -53.705799
-47.747002 5.7600002 -53.034401
-47.082001 5.7600002 -52.641998
-46.417 5.7600002 -52.692402
-45.751999 5.7600002 -52.413399
-45.087002 5.7600002 -51.819401
-44.422001 5.7600002 -50.579201
-43.757 5.7600002 -49.832199
-43.091999 5.7600002 -49.303001
-42.426998 5.7600002 -48.8008
-41.762001 5.7600002 -48.4804
-41.097 5.7600002 -48.100601
-40.431999 5.7600002 -47.6488
-39.766998 5.7600002 -46.995399
-39.102001 5.7600002 -46.6408
-38.437 5.7600002 -46.630001
-37.771999 5.7600002 -45.785801
-37.106998 5.7600002 -45.305199
-36.442001 5.7600002 -44.878601
-35.777 5.7600002 -44.266602
-35.112 5.7600002 -44.180199
-34.446999 5.7600002 -43.5718
-33.782001 5.7600002 -43.119999
-33.117001 5.7600002 -42.5728
-32.452 5.7600002 -42.414398
-31.787001 5.7600002 -41.865398
-31.122 5.7600002 -41.249802
-30.457001 5.7600002 -40.999599
-29.792 5.7600002 -40.7332
-29.127001 5.7600002 -40.459599
-28.462 5.7600002 -40.173401
-27.797001 5.7600002 -39.6586
-27.132 5.7600002 -39.403
-26.466999 5.7600002 -39.285999
-25.802 5.7600002 -38.868401
-25.136999 5.7600002 -38.326599
-24.472 5.7600002 -37.660599
-23.806999 5.7600002 -37.070202
-23.142 5.7600002 -36.623798
-22.476999 5.7600002 -37.106201
-21.812 5.7600002 -36.652599
-21.146999 5.7600002 -35.6968
-20.482 5.7600002 -35.2864
-19.816999 5.7600002 -34.993
-19.152 5.7600002 -34.753601
-18.487 5.7600002 -33.763599
-17.822001 5.7600002 -33.709599
-17.157 5.7600002 -33.6106
-16.492001 5.7600002 -33.1138
-15.827 5.7600002 -32.6674
-15.162 5.7600002 -32.114799
-14.497 5.7600002 -31.736799
-13.832 5.7600002 -31.7062
-13.167 5.7600002 -31.250799
-12.502 5.7600002 -31.069
-11.837 5.7600002 -30.8314
-11.172 5.7600002 -31.1248
-10.507 5.7600002 -31.1194
-9.842 5.7600002 -31.033001
-9.177 5.7600002 -30.8188
-8.5120001 5.7600002 -30.795401
-7.8470001 5.7600002 -31.0618
-7.1820002 5.7600002 -31.2148
-6.5170002 5.7600002 -31.121201
-5.8520002 5.7600002 -30.943001
-5.1869998 5.7600002 -30.898001
-4.5219998 5.7600002 -30.739599
-3.8570001 5.7600002 -30.714399
-3.1919999 5.7600002 -30.7108
-2.527 5.7600002 -30.489401
-1.862 5.7600002 -30.3652
-1.197 5.7600002 -30.330999
-0.53200001 5.7600002 -30.483999
0.133 5.7600002 -30.489401
0.79799998 5.7600002 -30.644199
1.4630001 5.7600002 -31.319201
2.128 5.7600002 -31.153601
2.793 5.7600002 -31.1698
3.4579999 5.7600002 -38.9548
4.1230001 5.7600002 -32.212002
4.7880001 5.7600002 -31.9942
5.4530001 5.7600002 -32.255199
6.118 5.7600002 -32.5648
6.783 5.7600002 -33.013
7.448 5.7600002 -33.0886
8.1129999 5.7600002 -33.500801
8.7779999 5.7600002 -33.886002
9.4429998 5.7600002 -34.233398
10.108 5.7600002 -34.125401
10.773 5.7600002 -34.237
11.438 5.7600002 -34.107399
12.103 5.7600002 -33.785198
12.768 5.7600002 -34.044399
13.433 5.7600002 -34.264
14.098 5.7600002 -34.256802
14.763 5.7600002 -34.5322
15.428 5.7600002 -34.613201
16.093 5.7600002 -34.413399
16.757999 5.7600002 -34.8508
17.423 5.7600002 -35.012798
18.087999 5.7600002 -34.796799
18.753 5.7600002 -35.2612
19.417999 5.7600002 -35.628399
20.083 5.7600002 -36.159401
20.747999 5.7600002 -36.123402
21.413 5.7600002 -36.353802
22.077999 5.7600002 -36.006401
22.743 5.7600002 -36.339401
23.408001 5.7600002 -36.6166
24.073 5.7600002 -37.221401
24.738001 5.7600002 -36.8578
25.403 5.7600002 -37.171001
26.068001 5.7600002 -37.381599
26.733 5.7600002 -37.855
27.398001 5.7600002 -38.312199
28.063 5.7600002 -38.449001
28.728001 5.7600002 -38.4958
29.393 5.7600002 -38.9188
30.058001 5.7600002 -39.374199
30.723 5.7600002 -39.644199
31.388 5.7600002 -40.013199
32.053001 5.7600002 -40.214802
32.717999 5.7600002 -40.2868
33.382999 5.7600002 -40.526199
34.048 5.7600002 -40.6828
34.713001 5.7600002 -41.055401
35.377998 5.7600002 -40.9762
36.042999 5.7600002 -41.221001
36.708 5.7600002 -41.541401
37.373001 5.7600002 -42.367599
38.037998 5.7600002 -42.626801
38.702999 5.7600002 -43.0714
39.368 5.7600002 -42.927399
40.033001 5.7600002 -43.499802
40.698002 5.7600002 -43.985802
41.362999 5.7600002 -43.933601
42.028 5.7600002 -44.943401
42.693001 5.7600002 -45.3232
43.358002 5.7600002 -45.342999
44.022999 5.7600002 -45.355598
44.688 5.7600002 -45.5518
45.353001 5.7600002 -45.582401
46.018002 5.7600002 -45.7066
46.682999 5.7600002 -45.861401
47.348 5.7600002 -45.9622
48.013 5.7600002 -46.4464
48.678001 5.7600002 -46.513
49.342999 5.7600002 -46.7794
50.007999 5.7600002 -47.479599
50.673 5.7600002 -47.832401
51.338001 5.7600002 -48.039398
52.002998 5.7600002 -47.909801
52.667999 5.7600002 -48.3526
53.333 5.7600002 -48.313
53.998001 5.7600002 -48.919601
54.662998 5.7600002 -49.522598
55.327999 5.7600002 -50.301998
55.993 5.7600002 -51.130001
56.658001 5.7600002 -52.4188
57.323002 5.7600002 -53.189201
57.987999 5.7600002 -53.754398
58.653 5.7600002 -54.431198
59.318001 5.7600002 -55.216
59.983002 5.7600002 -56.119598
60.647999 5.7600002 -57.1996
61.313 5.7600002 -58.121201
61.978001 5.7600002 -59.024799
62.643002 5.7600002 -60.147999
63.307999 5.7600002 -62.307999
63.973 5.7600002 -inf
64.638 5.7600002 -inf
65.303001 5.7600002 -inf
65.968002 5.7600002 -inf
66.633003 5.7600002 -inf
67.297997 5.7600002 -inf
67.962997 5.7600002 -inf
68.627998 5.7600002 -inf
69.292999 5.7600002 -inf
69.958 5.7600002 -inf
70.623001 5.7600002 -inf
71.288002 5.7600002 -inf
71.953003 5.7600002 -inf
72.617996 5.7600002 -inf
-77.671997 6.48 -inf
-77.007004 6.48 -inf
-76.342003 6.48 -inf
-75.677002 6.48 -inf
-75.012001 6.48 -inf
-74.347 6.48 -inf
-73.681999 6.48 -inf
-73.016998 6.48 -inf
-72.351997 6.48 -inf
-71.686996 6.48 -inf
-71.022003 6.48 -inf
-70.357002 6.48 -inf
-69.692001 6.48 -inf
-69.027 6.48 -inf
-68.362 6.48 -inf
-67.696999 6.48 -inf
-67.031998 6.48 -inf
-66.366997 6.48 -inf
-65.702003 6.48 -inf
-65.037003 6.48 -inf
-64.372002 6.48 -inf
-63.707001 6.48 -inf
-63.042 6.48 -inf
-62.376999 6.48 -inf
-61.712002 6.48 -inf
-61.047001 6.48 -inf
-60.382 6.48 -inf
-59.716999 6.48 -inf
-59.051998 6.48 -inf
-58.387001 6.48 -66.984398
-57.722 6.48 -65.719002
-57.056999 6.48 -65.0728
-56.391998 6.48 -64.196198
-55.727001 6.48 -63.395199
-55.062 6.48 -62.259399
-54.396999 6.48 -61.103802
-53.731998 6.48 -59.701599
-53.067001 6.48 -58.5406
-52.402 6.48 -57.834999
-51.737 6.48 -57.4426
-51.071999 6.48 -57.080799
-50.407001 6.48 -56.441799
-49.742001 6.48 -55.890999
-49.077 6.48 -54.843399
-48.411999 6.48 -53.6842
-47.747002 6.48 -53.146
-47.082001 6.48 -52.577202
-46.417 6.48 -52.778801
-45.751999 6.48 -52.933601
-45.087002 6.48 -51.922001
-44.422001 6.48 -51.020199
-43.757 6.48 -50.100399
-43.091999 6.48 -49.511799
-42.426998 6.48 -49.042
-41.762001 6.48 -48.744999
-41.097 6.48 -48.320202
-40.431999 6.48 -47.861198
-39.766998 6.48 -47.9314
-39.102001 6.48 -47.2024
-38.437 6.48 -46.865799
-37.771999 6.48 -47.069199
-37.106998 6.48 -46.271801
-36.442001 6.48 -45.5662
-35.777 6.48 -45.098202
-35.112 6.48 -44.655399
-34.446999 6.48 -43.706799
-33.782001 6.48 -43.5214
-33.117001 6.48 -43.179401
-32.452 6.48 -42.657398
-31.787001 6.48 -42.270401
-31.122 6.48 -41.644001
-30.457001 6.48 -41.656601
-29.792 6.48 -41.629601
-29.127001 6.48 -41.4748
-28.462 6.48 -40.582001
-27.797001 6.48 -40.380402
-27.132 6.48 -39.980801
-26.466999 6.48 -39.6208
-25.802 6.48 -39.003399
-25.136999 6.48 -38.450802
-24.472 6.48 -37.833401
-23.806999 6.48 -37.1404
-23.142 6.48 -36.895599
-22.476999 6.48 -37.054001
-21.812 6.48 -36.940601
-21.146999 6.48 -36.109001
-20.482 6.48 -35.569
-19.816999 6.48 -35.115398
-19.152 6.48 -34.75
-18.487 6.48 -34.242401
-17.822001 6.48 -33.900398
-17.157 6.48 -33.562
-16.492001 6.48 -33.057999
-15.827 6.48 -32.669201
-15.162 6.48 -32.197601
-14.497 6.48 -31.832199
-13.832 6.48 -31.571199
-13.167 6.48 -31.1698
-12.502 6.48 -31.052799
-11.837 6.48 -30.889
-11.172 6.48 -31.0618
-10.507 6.48 -30.9988
-9.842 6.48 -30.923201
-9.177 6.48 -30.757601
-8.5120001 6.48 -30.784599
-7.8470001 6.48 -30.6478
-7.1820002 6.48 -30.656799
-6.5170002 6.48 -30.7882
-5.8520002 6.48 -30.7486
-5.1869998 6.48 -30.8512
-4.5219998 6.48 -30.662201
-3.8570001 6.48 -30.732401
-3.1919999 6.48 -30.6532
-2.527 6.48 -30.444401
-1.862 6.48 -30.403
-1.197 6.48 -30.260799
-0.53200001 6.48 -30.3958
0.133 6.48 -30.444401
0.79799998 6.48 -30.8008
1.4630001 6.48 -30.840401
2.128 6.48 -30.6262
2.793 6.48 -30.5254
3.4579999 6.48 -31.4452
4.1230001 6.48 -31.672001
4.7880001 6.48 -31.2742
5.4530001 6.48 -31.1752
6.118 6.48 -31.4902
6.783 6.48 -32.1562
7.448 6.48 -32.518002
8.1129999 6.48 -33.405399
8.7779999 6.48 -33.841
9.4429998 6.48 -33.889599
10.108 6.48 -33.941799
10.773 6.48 -33.832001
11.438 6.48 -33.837399
12.103 6.48 -33.786999
12.768 6.48 -33.922001
13.433 6.48 -34.4566
14.098 6.48 -34.7878
14.763 6.48 -34.553799
15.428 6.48 -34.678001
16.093 6.48 -34.7104
16.757999 6.48 -34.8148
17.423 6.48 -34.9174
18.087999 6.48 -34.919201
18.753 6.48 -34.93
19.417999 6.48 -35.4916
20.083 6.48 -35.813801
20.747999 6.48 -36.125198
21.413 6.48 -35.946999
22.077999 6.48 -36.1036
22.743 6.48 -36.683201
23.408001 6.48 -36.854198
24.073 6.48 -36.652599
24.738001 6.48 -36.9856
25.403 6.48 -37.361801
26.068001 6.48 -37.309601
26.733 6.48 -37.788399
27.398001 6.48 -38.157398
28.063 6.48 -38.5336
28.728001 6.48 -38.666801
29.393 6.48 -39.061001
30.058001 6.48 -39.3634
30.723 6.48 -39.806198
31.388 6.48 -39.673
32.053001 6.48 -40.0546
32.717999 6.48 -40.200401
33.382999 6.48 -40.623402
34.048 6.48 -40.956402
34.713001 6.48 -40.852001
35.377998 6.48 -40.9258
36.042999 6.48 -41.1688
36.708 6.48 -41.570202
37.373001 6.48 -41.915798
38.037998 6.48 -41.903198
38.702999 6.48 -42.781601
39.368 6.48 -43.119999
40.033001 6.48 -43.417
40.698002 6.48 -43.9282
41.362999 6.48 -44.156799
42.028 6.48 -45.038799
42.693001 6.48 -45.404202
43.358002 6.48 -45.555401
44.022999 6.48 -45.364601
44.688 6.48 -45.841599
45.353001 6.48 -45.452801
46.018002 6.48 -45.636398
46.682999 6.48 -45.866798
47.348 6.48 -46
48.013 6.48 -46.338402
48.678001 6.48 -46.426601
49.342999 6.48 -46.995399
50.007999 6.48 -47.1898
50.673 6.48 -47.6992
51.338001 6.48 -47.368
52.002998 6.48 -47.9818
52.667999 6.48 -47.861198
53.333 6.48 -48.124001
53.998001 6.48 -48.491199
54.662998 6.48 -49.135601
55.327999 6.48 -49.7206
55.993 6.48 -50.496399
56.658001 6.48 -51.9958
57.323002 6.48 -52.629398
57.987999 6.48 -53.151402
58.653 6.48 -53.812
59.318001 6.48 -54.342999
59.983002 6.48 -55.516602
60.647999 6.48 -56.436401
61.313 6.48 -57.438999
61.978001 6.48 -58.292198
62.643002 6.48 -59.240799
63.307999 6.48 -60.5476
63.973 6.48 -62.486198
64.638 6.48 -inf
65.303001 6.48 -inf
65.968002 6.48 -inf
66.633003 6.48 -inf
67.297997 6.48 -inf
67.962997 6.48 -inf
68.627998 6.48 -inf
69.292999 6.48 -inf
69.958 6.48 -inf
70.623001 6.48 -inf
71.288002 6.48 -inf
71.953003 6.48 -inf
72.617996 6.48 -inf
-77.671997 7.1999998 -inf
-77.007004 7.1999998 -inf
-76.342003 7.1999998 -inf
-75.677002 7.1999998 -inf
-75.012001 7.1999998 -inf
-74.347 7.1999998 -inf
-73.681999 7.1999998 -inf
-73.016998 7.1999998 -inf
-72.351997 7.1999998 -inf
-71.686996 7.1999998 -inf
-71.022003 7.1999998 -inf
-70.357002 7.1999998 -inf
-69.692001 7.1999998 -inf
-69.027 7.1999998 -inf
-68.362 7.1999998 -inf
-67.696999 7.1999998 -inf
-67.031998 7.1999998 -inf
-66.366997 7.1999998 -inf
-65.702003 7.1999998 -inf
-65.037003 7.1999998 -inf
-64.372002 7.1999998 -inf
-63.707001 7.1999998 -inf
-63.042 7.1999998 -inf
-62.376999 7.1999998 -inf
-61.712002 7.1999998 -inf
-61.047001 7.1999998 -inf
-60.382 7.1999998 -inf
-59.716999 7.1999998 -inf
-59.051998 7.1999998 -inf
-58.387001 7.1999998 -inf
-57.722 7.1999998 -66.554199
-57.056999 7.1999998 -65.204201
-56.391998 7.1999998 -64.419403
-55.727001 7.1999998 -63.6544
-55.062 7.1999998 -63.123402
-54.396999 7.1999998 -62.587002
-53.731998 7.1999998 -60.772598
-53.067001 7.1999998 -58.857399
-52.402 7.1999998 -58.312
-51.737 7.1999998 -57.883598
-51.071999 7.1999998 -57.4156
-50.407001 7.1999998 -57.0718
-49.742001 7.1999998 -56.1376
-49.077 7.1999998 -54.8344
-48.411999 7.1999998 -53.8246
-47.747002 7.1999998 -53.228802
-47.082001 7.1999998 -52.7104
-46.417 7.1999998 -52.4692
-45.751999 7.1999998 -52.7122
-45.087002 7.1999998 -52.0858
-44.422001 7.1999998 -51.812199
-43.757 7.1999998 -50.723202
-43.091999 7.1999998 -50.003201
-42.426998 7.1999998 -49.504601
-41.762001 7.1999998 -49.063599
-41.097 7.1999998 -49.000599
-40.431999 7.1999998 -49.0438
-39.766998 7.1999998 -48.4552
-39.102001 7.1999998 -47.708199
-38.437 7.1999998 -47.173599
-37.771999 7.1999998 -46.968399
-37.106998 7.1999998 -46.584999
-36.442001 7.1999998 -45.91
-35.777 7.1999998 -45.634602
-35.112 7.1999998 -44.779598
-34.446999 7.1999998 -44.358398
-33.782001 7.1999998 -44.118999
-33.117001 7.1999998 -43.534
-32.452 7.1999998 -43.159599
-31.787001 7.1999998 -42.688
-31.122 7.1999998 -42.297401
-30.457001 7.1999998 -42.223598
-29.792 7.1999998 -41.579201
-29.127001 7.1999998 -41.3578
-28.462 7.1999998 -40.895199
-27.797001 7.1999998 -40.650398
-27.132 7.1999998 -40.205799
-26.466999 7.1999998 -39.591999
-25.802 7.1999998 -38.659599
-25.136999 7.1999998 -38.080002
-24.472 7.1999998 -38.0368
-23.806999 7.1999998 -37.480598
-23.142 7.1999998 -38.4076
-22.476999 7.1999998 -37.224998
-21.812 7.1999998 -36.521198
-21.146999 7.1999998 -35.667999
-20.482 7.1999998 -35.264801
-19.816999 7.1999998 -35.0182
-19.152 7.1999998 -34.75
-18.487 7.1999998 -34.051601
-17.822001 7.1999998 -33.796001
-17.157 7.1999998 -33.4702
-16.492001 7.1999998 -32.989601
-15.827 7.1999998 -32.3974
-15.162 7.1999998 -32.2318
-14.497 7.1999998 -31.767401
-13.832 7.1999998 -31.385799
-13.167 7.1999998 -31.038401
-12.502 7.1999998 -30.8242
-11.837 7.1999998 -31.096001
-11.172 7.1999998 -30.9538
-10.507 7.1999998 -30.9268
-9.842 7.1999998 -30.865601
-9.177 7.1999998 -30.802601
-8.5120001 7.1999998 -30.797199
-7.8470001 7.1999998 -30.701799
-7.1820002 7.1999998 -30.509199
-6.5170002 7.1999998 -30.7792
-5.8520002 7.1999998 -30.707199
-5.1869998 7.1999998 -30.840401
-4.5219998 7.1999998 -30.52
-3.8570001 7.1999998 -30.547001
-3.1919999 7.1999998 -30.273399
-2.527 7.1999998 -30.183399
-1.862 7.1999998 -30.170799
-1.197 7.1999998 -30.025
-0.53200001 7.1999998 -30.1348
0.133 7.1999998 -30.145599
0.79799998 7.1999998 -30.1798
1.4630001 7.1999998 -30.1744
2.128 7.1999998 -30.025
2.793 7.1999998 -30.215799
3.4579999 7.1999998 -30.9736
4.1230001 7.1999998 -31.576599
4.7880001 7.1999998 -31.3228
5.4530001 7.1999998 -31.2922
6.118 7.1999998 -31.2868
6.783 7.1999998 -31.787201
7.448 7.1999998 -32.0266
8.1129999 7.1999998 -33.174999
8.7779999 7.1999998 -33.5854
9.4429998 7.1999998 -33.666401
10.108 7.1999998 -33.891399
10.773 7.1999998 -38.3806
11.438 7.1999998 -33.580002
12.103 7.1999998 -33.720402
12.768 7.1999998 -34.049801
13.433 7.1999998 -34.024601
14.098 7.1999998 -34.377399
14.763 7.1999998 -34.449402
15.428 7.1999998 -34.462002
16.093 7.1999998 -34.598801
16.757999 7.1999998 -34.409801
17.423 7.1999998 -34.613201
18.087999 7.1999998 -34.629398
18.753 7.1999998 -35.001999
19.417999 7.1999998 -35.099201
20.083 7.1999998 -35.385399
20.747999 7.1999998 -35.570801
21.413 7.1999998 -35.540199
22.077999 7.1999998 -35.806599
22.743 7.1999998 -36.1576
23.408001 7.1999998 -36.209801
24.073 7.1999998 -36.495998
24.738001 7.1999998 -37.147598
25.403 7.1999998 -37.4356
26.068001 7.1999998 -38.4958
26.733 7.1999998 -38.485001
27.398001 7.1999998 -38.116001
28.063 7.1999998 -38.504799
28.728001 7.1999998 -38.870201
29.393 7.1999998 -39.271599
30.058001 7.1999998 -39.5434
30.723 7.1999998 -39.962799
31.388 7.1999998 -39.498402
32.053001 7.1999998 -39.9664
32.717999 7.1999998 -40.339001
33.382999 7.1999998 -40.569401
34.048 7.1999998 -40.781799
34.713001 7.1999998 -40.979801
35.377998 7.1999998 -40.861
36.042999 7.1999998 -41.190399
36.708 7.1999998 -41.3344
37.373001 7.1999998 -41.975201
38.037998 7.1999998 -42.295601
38.702999 7.1999998 -42.5098
39.368 7.1999998 -42.9454
40.033001 7.1999998 -43.370201
40.698002 7.1999998 -43.982201
41.362999 7.1999998 -44.397999
42.028 7.1999998 -45.177399
42.693001 7.1999998 -45.609402
43.358002 7.1999998 -45.805599
44.022999 7.1999998 -45.6922
44.688 7.1999998 -45.848801
45.353001 7.1999998 -45.855999
46.018002 7.1999998 -45.667
46.682999 7.1999998 -46.0252
47.348 7.1999998 -45.920799
48.013 7.1999998 -46.1908
48.678001 7.1999998 -46.333
49.342999 7.1999998 -46.646198
50.007999 7.1999998 -47.0746
50.673 7.1999998 -47.427399
51.338001 7.1999998 -47.2798
52.002998 7.1999998 -47.096199
52.667999 7.1999998 -47.529999
53.333 7.1999998 -48.064602
53.998001 7.1999998 -48.194199
54.662998 7.1999998 -48.9034
55.327999 7.1999998 -49.382198
55.993 7.1999998 -50.060799
56.658001 7.1999998 -51.137199
57.323002 7.1999998 -52.143398
57.987999 7.1999998 -52.598801
58.653 7.1999998 -53.1334
59.318001 7.1999998 -53.632
59.983002 7.1999998 -54.737202
60.647999 7.1999998 -55.813599
61.313 7.1999998 -56.6488
61.978001 7.1999998 -57.507401
62.643002 7.1999998 -58.434399
63.307999 7.1999998 -59.548599
63.973 7.1999998 -62.7094
64.638 7.1999998 -62.7094
65.303001 7.1999998 -inf
65.968002 7.1999998 -inf
66.633003 7.1999998 -inf
67.297997 7.1999998 -inf
67.962997 7.1999998 -inf
68.627998 7.1999998 -inf
69.292999 7.1999998 -inf
69.958 7.1999998 -inf
70.623001 7.1999998 -inf
71.288002 7.1999998 -inf
71.953003 7.1999998 -inf
72.617996 7.1999998 -inf
-77.671997 7.9200001 -inf
-77.007004 7.9200001 -inf
-76.342003 7.9200001 -inf
-75.677002 7.9200001 -inf
-75.012001 7.9200001 -inf
-74.347 7.9200001 -inf
-73.681999 7.9200001 -inf
-73.016998 7.9200001 -inf
-72.351997 7.9200001 -inf
-71.686996 7.9200001 -inf
-71.022003 7.9200001 -inf
-70.357002 7.9200001 -inf
-69.692001 7.9200001 -inf
-69.027 7.9200001 -inf
-68.362 7.9200001 -inf
-67.696999 7.9200001 -inf
-67.031998 7.9200001 -inf
-66.366997 7.9200001 -inf
-65.702003 7.9200001 -inf
-65.037003 7.9200001 -inf
-64.372002 7.9200001 -inf
-63.707001 7.9200001 -inf
-63.042 7.9200001 -inf
-62.376999 7.9200001 -inf
-61.712002 7.9200001 -inf
-61.047001 7.9200001 -inf
-60.382 7.9200001 -inf
-59.716999 7.9200001 -inf
-59.051998 7.9200001 -inf
-58.387001 7.9200001 -inf
-57.722 7.9200001 -inf
-57.056999 7.9200001 -66.120399
-56.391998 7.9200001 -64.748802
-55.727001 7.9200001 -63.803799
-55.062 7.9200001 -63.164799
-54.396999 7.9200001 -62.763401
-53.731998 7.9200001 -62.115398
-53.067001 7.9200001 -61.395401
-52.402 7.9200001 -60.655602
-51.737 7.9200001 -59.543201
-51.071999 7.9200001 -58.040199
-50.407001 7.9200001 -57.156399
-49.742001 7.9200001 -56.3032
-49.077 7.9200001 -54.850601
-48.411999 7.9200001 -53.905602
-47.747002 7.9200001 -53.327801
-47.082001 7.9200001 -52.845402
-46.417 7.9200001 -52.415199
-45.751999 7.9200001 -52.645599
-45.087002 7.9200001 -52.2388
-44.422001 7.9200001 -52.310799
-43.757 7.9200001 -51.133598
-43.091999 7.9200001 -50.674599
-42.426998 7.9200001 -49.869999
-41.762001 7.9200001 -49.524399
-41.097 7.9200001 -49.1068
-40.431999 7.9200001 -49.040199
-39.766998 7.9200001 -48.597401
-39.102001 7.9200001 -48.064602
-38.437 7.9200001 -47.539001
-37.771999 7.9200001 -47.182598
-37.106998 7.9200001 -47.502998
-36.442001 7.9200001 -46.8064
-35.777 7.9200001 -45.8992
-35.112 7.9200001 -45.4492
-34.446999 7.9200001 -44.882198
-33.782001 7.9200001 -44.370998
-33.117001 7.9200001 -44.1964
-32.452 7.9200001 -43.5196
-31.787001 7.9200001 -43.308998
-31.122 7.9200001 -43.296398
-30.457001 7.9200001 -42.535
-29.792 7.9200001 -41.825802
-29.127001 7.9200001 -41.957199
-28.462 7.9200001 -41.222801
-27.797001 7.9200001 -40.5802
-27.132 7.9200001 -40.1824
-26.466999 7.9200001 -39.566799
-25.802 7.9200001 -38.731602
-25.136999 7.9200001 -37.764999
-24.472 7.9200001 -37.557999
-23.806999 7.9200001 -37.5364
-23.142 7.9200001 -37.863998
-22.476999 7.9200001 -36.728199
-21.812 7.9200001 -36.4114
-21.146999 7.9200001 -35.480801
-20.482 7.9200001 -35.295399
-19.816999 7.9200001 -34.996601
-19.152 7.9200001 -34.490799
-18.487 7.9200001 -33.912998
-17.822001 7.9200001 -33.759998
-17.157 7.9200001 -33.5098
-16.492001 7.9200001 -33.068802
-15.827 7.9200001 -32.6548
-15.162 7.9200001 -32.445999
-14.497 7.9200001 -31.870001
-13.832 7.9200001 -31.4074
-13.167 7.9200001 -31.1716
-12.502 7.9200001 -30.943001
-11.837 7.9200001 -30.889
-11.172 7.9200001 -30.6658
-10.507 7.9200001 -30.820601
-9.842 7.9200001 -30.822399
-9.177 7.9200001 -30.6964
-8.5120001 7.9200001 -30.827801
-7.8470001 7.9200001 -30.9088
-7.1820002 7.9200001 -30.691
-6.5170002 7.9200001 -30.664
-5.8520002 7.9200001 -30.559601
-5.1869998 7.9200001 -30.636999
-4.5219998 7.9200001 -30.273399
-3.8570001 7.9200001 -30.239201
-3.1919999 7.9200001 -29.9638
-2.527 7.9200001 -29.8918
-1.862 7.9200001 -29.8036
-1.197 7.9200001 -29.9422
-0.53200001 7.9200001 -29.9566
0.133 7.9200001 -29.9188
0.79799998 7.9200001 -29.997999
1.4630001 7.9200001 -30.3652
2.128 7.9200001 -30.4228
2.793 7.9200001 -30.4354
3.4579999 7.9200001 -30.541599
4.1230001 7.9200001 -31.3246
4.7880001 7.9200001 -31.4146
5.4530001 7.9200001 -31.378599
6.118 7.9200001 -31.5874
6.783 7.9200001 -31.641399
7.448 7.9200001 -31.864599
8.1129999 7.9200001 -32.5252
8.7779999 7.9200001 -33.2146
9.4429998 7.9200001 -33.652
10.108 7.9200001 -34.1614
10.773 7.9200001 -38.3806
11.438 7.9200001 -33.686199
12.103 7.9200001 -33.5854
12.768 7.9200001 -33.961601
13.433 7.9200001 -34.028198
14.098 7.9200001 -34.1884
14.763 7.9200001 -34.445801
15.428 7.9200001 -34.476398
16.093 7.9200001 -34.262199
16.757999 7.9200001 -34.359402
17.423 7.9200001 -34.438599
18.087999 7.9200001 -34.638401
18.753 7.9200001 -34.773399
19.417999 7.9200001 -34.993
20.083 7.9200001 -35.115398
20.747999 7.9200001 -35.254002
21.413 7.9200001 -35.162201
22.077999 7.9200001 -35.577999
22.743 7.9200001 -35.873199
23.408001 7.9200001 -36.049599
24.073 7.9200001 -36.391602
24.738001 7.9200001 -36.605801
25.403 7.9200001 -37.136799
26.068001 7.9200001 -37.324001
26.733 7.9200001 -38.395
27.398001 7.9200001 -38.1646
28.063 7.9200001 -38.603802
28.728001 7.9200001 -38.674
29.393 7.9200001 -39.061001
30.058001 7.9200001 -39.694599
30.723 7.9200001 -39.4804
31.388 7.9200001 -39.474998
32.053001 7.9200001 -39.728802
32.717999 7.9200001 -40.203999
33.382999 7.9200001 -40.508202
34.048 7.9200001 -40.736801
34.713001 7.9200001 -41.055401
35.377998 7.9200001 -41.127399
36.042999 7.9200001 -41.3218
36.708 7.9200001 -41.582802
37.373001 7.9200001 -41.931999
38.037998 7.9200001 -42.2542
38.702999 7.9200001 -42.866199
39.368 7.9200001 -42.8554
40.033001 7.9200001 -43.208199
40.698002 7.9200001 -44.1838
41.362999 7.9200001 -44.650002
42.028 7.9200001 -45.123402
42.693001 7.9200001 -45.276402
43.358002 7.9200001 -45.765999
44.022999 7.9200001 -45.980202
44.688 7.9200001 -46.120602
45.353001 7.9200001 -45.789398
46.018002 7.9200001 -46.273602
46.682999 7.9200001 -46.086399
47.348 7.9200001 -45.933399
48.013 7.9200001 -46.287998
48.678001 7.9200001 -46.2682
49.342999 7.9200001 -46.579601
50.007999 7.9200001 -46.847801
50.673 7.9200001 -46.800999
51.338001 7.9200001 -47.337399
52.002998 7.9200001 -47.146599
52.667999 7.9200001 -47.403999
53.333 7.9200001 -47.823399
53.998001 7.9200001 -48.253601
54.662998 7.9200001 -48.525398
55.327999 7.9200001 -48.924999
55.993 7.9200001 -49.536999
56.658001 7.9200001 -50.5504
57.323002 7.9200001 -51.308201
57.987999 7.9200001 -51.911201
58.653 7.9200001 -52.4818
59.318001 7.9200001 -53.016399
59.983002 7.9200001 -53.9506
60.647999 7.9200001 -55.018002
61.313 7.9200001 -55.885601
61.978001 7.9200001 -56.796398
62.643002 7.9200001 -57.5938
63.307999 7.9200001 -58.483002
63.973 7.9200001 -61.1866
64.638 7.9200001 -61.1866
65.303001 7.9200001 -inf
65.968002 7.9200001 -inf
66.633003 7.9200001 -inf
67.297997 7.9200001 -inf
67.962997 7.9200001 -inf
68.627998 7.9200001 -inf
69.292999 7.9200001 -inf
69.958 7.9200001 -inf
70.623001 7.9200001 -inf
71.288002 7.9200001 -inf
71.953003 7.9200001 -inf
72.617996 7.9200001 -inf
-77.671997 8.6400003 -inf
-77.007004 8.6400003 -inf
-76.342003 8.6400003 -inf
-75.677002 8.6400003 -inf
-75.012001 8.6400003 -inf
-74.347 8.6400003 -inf
-73.681999 8.6400003 -inf
-73.016998 8.6400003 -inf
-72.351997 8.6400003 -inf
-71.686996 8.6400003 -inf
-71.022003 8.6400003 -inf
-70.357002 8.6400003 -inf
-69.692001 8.6400003 -inf
-69.027 8.6400003 -inf
-68.362 8.6400003 -inf
-67.696999 8.6400003 -inf
-67.031998 8.6400003 -inf
-66.366997 8.6400003 -inf
-65.702003 8.6400003 -inf
-65.037003 8.6400003 -inf
-64.372002 8.6400003 -inf
-63.707001 8.6400003 -inf
-63.042 8.6400003 -inf
-62.376999 8.6400003 -inf
-61.712002 8.6400003 -inf
-61.047001 8.6400003 -inf
-60.382 8.6400003 -inf
-59.716999 8.6400003 -inf
-59.051998 8.6400003 -inf
-58.387001 8.6400003 -inf
-57.722 8.6400003 -inf
-57.056999 8.6400003 -inf
-56.391998 8.6400003 -65.828796
-55.727001 8.6400003 -64.2304
-55.062 8.6400003 -63.409599
-54.396999 8.6400003 -62.804798
-53.731998 8.6400003 -62.1064
-53.067001 8.6400003 -61.784199
-52.402 8.6400003 -60.986801
-51.737 8.6400003 -60.090401
-51.071999 8.6400003 -59.284
-50.407001 8.6400003 -57.894402
-49.742001 8.6400003 -56.211399
-49.077 8.6400003 -54.746201
-48.411999 8.6400003 -53.640999
-47.747002 8.6400003 -53.144199
-47.082001 8.6400003 -52.9048
-46.417 8.6400003 -52.631199
-45.751999 8.6400003 -52.449402
-45.087002 8.6400003 -52.125401
-44.422001 8.6400003 -51.9328
-43.757 8.6400003 -51.869801
-43.091999 8.6400003 -51.083199
-42.426998 8.6400003 -49.924
-41.762001 8.6400003 -50.046398
-41.097 8.6400003 -49.609001
-40.431999 8.6400003 -49.3228
-39.766998 8.6400003 -49.222
-39.102001 8.6400003 -48.482201
-38.437 8.6400003 -47.974602
-37.771999 8.6400003 -47.614601
-37.106998 8.6400003 -47.519199
-36.442001 8.6400003 -46.943199
-35.777 8.6400003 -46.1548
-35.112 8.6400003 -45.784
-34.446999 8.6400003 -45.0676
-33.782001 8.6400003 -44.642799
-33.117001 8.6400003 -44.264801
-32.452 8.6400003 -43.987598
-31.787001 8.6400003 -43.605999
-31.122 8.6400003 -43.447601
-30.457001 8.6400003 -42.862598
-29.792 8.6400003 -42.706001
-29.127001 8.6400003 -41.942799
-28.462 8.6400003 -41.0518
-27.797001 8.6400003 -40.8484
-27.132 8.6400003 -39.887199
-26.466999 8.6400003 -39.073601
-25.802 8.6400003 -38.666801
-25.136999 8.6400003 -37.865799
-24.472 8.6400003 -37.936001
-23.806999 8.6400003 -37.725399
-23.142 8.6400003 -37.3186
-22.476999 8.6400003 -36.8596
-21.812 8.6400003 -36.369999
-21.146999 8.6400003 -35.623001
-20.482 8.6400003 -35.331402
-19.816999 8.6400003 -34.843601
-19.152 8.6400003 -34.3666
-18.487 8.6400003 -34.064201
-17.822001 8.6400003 -33.783401
-17.157 8.6400003 -33.614201
-16.492001 8.6400003 -33.275799
-15.827 8.6400003 -32.951801
-15.162 8.6400003 -32.721401
-14.497 8.6400003 -32.311001
-13.832 8.6400003 -31.749399
-13.167 8.6400003 -31.608999
-12.502 8.6400003 -31.211201
-11.837 8.6400003 -31.1014
-11.172 8.6400003 -30.781
-10.507 8.6400003 -30.910601
-9.842 8.6400003 -30.872801
-9.177 8.6400003 -30.834999
-8.5120001 8.6400003 -30.9268
-7.8470001 8.6400003 -30.8332
-7.1820002 8.6400003 -30.7306
-6.5170002 8.6400003 -30.566799
-5.8520002 8.6400003 -30.437201
-5.1869998 8.6400003 -30.489401
-4.5219998 8.6400003 -30.273399
-3.8570001 8.6400003 -30.0826
-3.1919999 8.6400003 -29.719
-2.527 8.6400003 -29.747801
-1.862 8.6400003 -29.6236
-1.197 8.6400003 -29.576799
-0.53200001 8.6400003 -29.773001
0.133 8.6400003 -29.614599
0.79799998 8.6400003 -29.6758
1.4630001 8.6400003 -29.827
2.128 8.6400003 -29.8666
2.793 8.6400003 -30.0376
3.4579999 8.6400003 -30.367001
4.1230001 8.6400003 -30.673
4.7880001 8.6400003 -30.8062
5.4530001 8.6400003 -30.962799
6.118 8.6400003 -31.135599
6.783 8.6400003 -31.4056
7.448 8.6400003 -31.479401
8.1129999 8.6400003 -32.0788
8.7779999 8.6400003 -32.739399
9.4429998 8.6400003 -33.5854
10.108 8.6400003 -34.375599
10.773 8.6400003 -38.3806
11.438 8.6400003 -34.094799
12.103 8.6400003 -33.934601
12.768 8.6400003 -34.026402
13.433 8.6400003 -34.2892
14.098 8.6400003 -34.111
14.763 8.6400003 -34.193802
15.428 8.6400003 -34.485401
16.093 8.6400003 -34.318001
16.757999 8.6400003 -34.48
17.423 8.6400003 -34.402599
18.087999 8.6400003 -34.780602
18.753 8.6400003 -35.007401
19.417999 8.6400003 -35.052399
20.083 8.6400003 -35.412399
20.747999 8.6400003 -35.718399
21.413 8.6400003 -35.1982
22.077999 8.6400003 -35.633801
22.743 8.6400003 -35.5186
23.408001 8.6400003 -35.972198
24.073 8.6400003 -36.3592
24.738001 8.6400003 -36.4006
25.403 8.6400003 -36.755199
26.068001 8.6400003 -37.559799
26.733 8.6400003 -37.903599
27.398001 8.6400003 -38.348202
28.063 8.6400003 -38.259998
28.728001 8.6400003 -38.6362
29.393 8.6400003 -39.035801
30.058001 8.6400003 -39.654999
30.723 8.6400003 -39.494801
31.388 8.6400003 -39.3526
32.053001 8.6400003 -39.6478
32.717999 8.6400003 -40.110401
33.382999 8.6400003 -40.295799
34.048 8.6400003 -40.915001
34.713001 8.6400003 -41.073399
35.377998 8.6400003 -41.465801
36.042999 8.6400003 -41.672798
36.708 8.6400003 -41.644001
37.373001 8.6400003 -42.041801
38.037998 8.6400003 -42.1264
38.702999 8.6400003 -42.8302
39.368 8.6400003 -43.139801
40.033001 8.6400003 -43.462002
40.698002 8.6400003 -44.115398
41.362999 8.6400003 -44.424999
42.028 8.6400003 -45.1306
42.693001 8.6400003 -45.3592
43.358002 8.6400003 -46.3186
44.022999 8.6400003 -46.098999
44.688 8.6400003 -45.971199
45.353001 8.6400003 -45.735401
46.018002 8.6400003 -46.248402
46.682999 8.6400003 -46.349201
47.348 8.6400003 -46.819
48.013 8.6400003 -47.236599
48.678001 8.6400003 -47.2258
49.342999 8.6400003 -47.2276
50.007999 8.6400003 -46.926998
50.673 8.6400003 -46.835201
51.338001 8.6400003 -46.937801
52.002998 8.6400003 -46.867599
52.667999 8.6400003 -47.2528
53.333 8.6400003 -47.6866
53.998001 8.6400003 -47.9314
54.662998 8.6400003 -48.138401
55.327999 8.6400003 -48.471401
55.993 8.6400003 -48.827801
56.658001 8.6400003 -49.8592
57.323002 8.6400003 -50.681801
57.987999 8.6400003 -51.6124
58.653 8.6400003 -51.9184
59.318001 8.6400003 -52.335999
59.983002 8.6400003 -53.228802
60.647999 8.6400003 -54.004601
61.313 8.6400003 -55.046799
61.978001 8.6400003 -56.089001
62.643002 8.6400003 -56.8018
63.307999 8.6400003 -57.5308
63.973 8.6400003 -58.5532
64.638 8.6400003 -59.762798
65.303001 8.6400003 -59.854599
65.968002 8.6400003 -inf
66.633003 8.6400003 -inf
67.297997 8.6400003 -inf
67.962997 8.6400003 -inf
68.627998 8.6400003 -inf
69.292999 8.6400003 -inf
69.958 8.6400003 -inf
70.623001 8.6400003 -inf
71.288002 8.6400003 -inf
71.953003 8.6400003 -inf
72.617996 8.6400003 -inf
-77.671997 9.3599997 -inf
-77.007004 9.3599997 -inf
-76.342003 9.3599997 -inf
-75.677002 9.3599997 -inf
-75.012001 9.3599997 -inf
-74.347 9.3599997 -inf
-73.681999 9.3599997 -inf
-73.016998 9.3599997 -inf
-72.351997 9.3599997 -inf
-71.686996 9.3599997 -inf
-71.022003 9.3599997 -inf
-70.357002 9.3599997 -inf
-69.692001 9.3599997 -inf
-69.027 9.3599997 -inf
-68.362 9.3599997 -inf
-67.696999 9.3599997 -inf
-67.031998 9.3599997 -inf
-66.366997 9.3599997 -inf
-65.702003 9.3599997 -inf
-65.037003 9.3599997 -inf
-64.372002 9.3599997 -inf
-63.707001 9.3599997 -inf
-63.042 9.3599997 -inf
-62.376999 9.3599997 -inf
-61.712002 9.3599997 -inf
-61.047001 9.3599997 -inf
-60.382 9.3599997 -inf
-59.716999 9.3599997 -inf
-59.051998 9.3599997 -inf
-58.387001 9.3599997 -inf
-57.722 9.3599997 -inf
-57.056999 9.3599997 -inf
-56.391998 9.3599997 -66.898003
-55.727001 9.3599997 -64.313202
-55.062 9.3599997 -63.627399
-54.396999 9.3599997 -63.153999
-53.731998 9.3599997 -62.344002
-53.067001 9.3599997 -62.028999
-52.402 9.3599997 -62.0434
-51.737 9.3599997 -61.348598
-51.071999 9.3599997 -59.851002
-50.407001 9.3599997 -58.245399
-49.742001 9.3599997 -56.078201
-49.077 9.3599997 -54.73
-48.411999 9.3599997 -53.948799
-47.747002 9.3599997 -53.219799
-47.082001 9.3599997 -52.906601
-46.417 9.3599997 -52.465599
-45.751999 9.3599997 -52.118198
-45.087002 9.3599997 -51.993999
-44.422001 9.3599997 -51.866199
-43.757 9.3599997 -51.823002
-43.091999 9.3599997 -51.174999
-42.426998 9.3599997 -50.591801
-41.762001 9.3599997 -50.032001
-41.097 9.3599997 -49.6306
-40.431999 9.3599997 -49.983398
-39.766998 9.3599997 -49.457802
-39.102001 9.3599997 -48.989799
-38.437 9.3599997 -48.359798
-37.771999 9.3599997 -47.987202
-37.106998 9.3599997 -47.611
-36.442001 9.3599997 -46.837002
-35.777 9.3599997 -46.457199
-35.112 9.3599997 -46.0756
-34.446999 9.3599997 -45.495998
-33.782001 9.3599997 -45.1954
-33.117001 9.3599997 -44.961399
-32.452 9.3599997 -44.444801
-31.787001 9.3599997 -44.011002
-31.122 9.3599997 -43.568199
-30.457001 9.3599997 -43.138
-29.792 9.3599997 -42.516998
-29.127001 9.3599997 -41.5648
-28.462 9.3599997 -41.087799
-27.797001 9.3599997 -40.205799
-27.132 9.3599997 -39.894402
-26.466999 9.3599997 -39.187
-25.802 9.3599997 -38.7766
-25.136999 9.3599997 -38.4832
-24.472 9.3599997 -37.863998
-23.806999 9.3599997 -37.597599
-23.142 9.3599997 -37.196201
-22.476999 9.3599997 -36.780399
-21.812 9.3599997 -36.091
-21.146999 9.3599997 -35.599602
-20.482 9.3599997 -35.144199
-19.816999 9.3599997 -34.721199
-19.152 9.3599997 -34.370201
-18.487 9.3599997 -34.119999
-17.822001 9.3599997 -33.750999
-17.157 9.3599997 -33.4342
-16.492001 9.3599997 -33.112
-15.827 9.3599997 -32.885201
-15.162 9.3599997 -32.382999
-14.497 9.3599997 -31.9564
-13.832 9.3599997 -31.571199
-13.167 9.3599997 -31.348
-12.502 9.3599997 -31.2274
-11.837 9.3599997 -30.935801
-11.172 9.3599997 -30.7342
-10.507 9.3599997 -30.9088
-9.842 9.3599997 -30.826
-9.177 9.3599997 -30.930401
-8.5120001 9.3599997 -30.9088
-7.8470001 9.3599997 -30.7054
-7.1820002 9.3599997 -30.507401
-6.5170002 9.3599997 -30.424601
-5.8520002 9.3599997 -30.5002
-5.1869998 9.3599997 -30.4084
-4.5219998 9.3599997 -30.223
-3.8570001 9.3599997 -29.9566
-3.1919999 9.3599997 -29.656
-2.527 9.3599997 -29.735201
-1.862 9.3599997 -29.6812
-1.197 9.3599997 -29.7766
-0.53200001 9.3599997 -29.780199
0.133 9.3599997 -29.665001
0.79799998 9.3599997 -29.6992
1.4630001 9.3599997 -29.844999
2.128 9.3599997 -29.8918
2.793 9.3599997 -30.115
3.4579999 9.3599997 -30.201401
4.1230001 9.3599997 -30.0502
4.7880001 9.3599997 -29.844999
5.4530001 9.3599997 -30.1366
6.118 9.3599997 -31.110399
6.783 9.3599997 -31.616199
7.448 9.3599997 -32.111198
8.1129999 9.3599997 -32.393799
