# .PCD v0.7 - Point Cloud Data file format
VERSION 0.7
FIELDS x y z
SIZE 4 4 4
TYPE F F F
COUNT 1 1 1
WIDTH 1810
HEIGHT 1
VIEWPOINT 0 0 0 1 0 0 0
POINTS 1810
DATA ascii
-25.27 28.08 -48.473202
-24.605 28.08 -48.458801
-23.940001 28.08 -48.395802
-23.275 28.08 -48.089802
-22.610001 28.08 -47.8036
-21.945 28.08 -47.737
-21.280001 28.08 -47.486801
-20.615 28.08 -50.777199
-19.950001 28.08 -51.005798
-19.285 28.08 -51.005798
-18.620001 28.08 -46.351002
-17.955 28.08 -46.431999
-17.290001 28.08 -46.4338
-16.625 28.08 -inf
-15.96 28.08 -inf
-15.295 28.08 -inf
-14.63 28.08 -inf
-13.965 28.08 -45.262001
-13.3 28.08 -45.146801
-12.635 28.08 -45.083801
-11.97 28.08 -44.986599
-11.305 28.08 -44.763401
-10.64 28.08 -44.986599
-9.9750004 28.08 -44.765202
-9.3100004 28.08 -44.507801
-8.6450005 28.08 -44.4394
-7.98 28.08 -44.322399
-7.3150001 28.08 -43.721199
-6.6500001 28.08 -43.568199
-5.9850001 28.08 -43.402599
-5.3200002 28.08 -43.152401
-4.6550002 28.08 -42.452202
-3.99 28.08 -42.2812
-3.325 28.08 -42.0508
-2.6600001 28.08 -41.8312
-1.995 28.08 -41.055401
-1.33 28.08 -41.005001
-0.66500002 28.08 -40.769199
1.4210855e-14 28.08 -40.679199
0.66500002 28.08 -40.173401
1.33 28.08 -40.133801
1.995 28.08 -39.826
2.6600001 28.08 -39.719799
3.325 28.08 -39.3022
3.99 28.08 -38.7388
4.6550002 28.08 -38.952999
5.3200002 28.08 -38.486801
5.9850001 28.08 -38.173599
6.6500001 28.08 -38.126801
7.3150001 28.08 -38.063801
7.98 28.08 -38.209599
8.6450005 28.08 -37.682201
9.3100004 28.08 -37.5616
9.9750004 28.08 -37.549
10.64 28.08 -37.172798
11.305 28.08 -36.855999
11.97 28.08 -36.7444
12.635 28.08 -36.670601
13.3 28.08 -36.600399
13.965 28.08 -36.3088
14.63 28.08 -36.137798
15.295 28.08 -35.919998
15.96 28.08 -35.781399
16.625 28.08 -35.5312
17.290001 28.08 -35.545601
17.955 28.08 -35.187401
18.620001 28.08 -35.101002
19.285 28.08 -34.861599
19.950001 28.08 -34.515999
20.615 28.08 -34.452999
21.280001 28.08 -34.0588
21.945 28.08 -34.084
22.610001 28.08 -33.655602
23.275 28.08 -33.542198
23.940001 28.08 -33.461201
24.605 28.08 -33.358601
25.27 28.08 -33.225399
25.934999 28.08 -33.094002
26.6 28.08 -32.887001
27.264999 28.08 -32.941002
27.93 28.08 -32.739399
28.594999 28.08 -32.624199
29.26 28.08 -32.323601
29.924999 28.08 -32.0518
30.59 28.08 -31.787201
31.254999 28.08 -31.724199
31.92 28.08 -31.5226
32.584999 28.08 -31.4704
33.25 28.08 -31.364201
33.915001 28.08 -31.0222
34.580002 28.08 -30.889
35.244999 28.08 -30.737801
35.91 28.08 -30.618999
36.575001 28.08 -30.07
37.240002 28.08 -30.0646
37.904999 28.08 -29.877399
38.57 28.08 -29.864799
39.235001 28.08 -29.9692
39.900002 28.08 -30.008801
40.564999 28.08 -29.807199
41.23 28.08 -30.1528
41.895 28.08 -30.3904
42.560001 28.08 -30.475
43.224998 28.08 -30.879999
43.889999 28.08 -30.9646
44.555 28.08 -31.486601
45.220001 28.08 -31.5352
45.884998 28.08 -31.421801
46.549999 28.08 -31.747601
47.215 28.08 -31.5604
47.880001 28.08 -32.093201
48.544998 28.08 -32.068001
49.209999 28.08 -32.606201
49.875 28.08 -32.917599
50.540001 28.08 -33.410801
51.205002 28.08 -33.8428
51.869999 28.08 -34.280201
52.535 28.08 -34.2244
53.200001 28.08 -34.5214
53.865002 28.08 -34.976799
54.529999 28.08 -35.603199
55.195 28.08 -36.181
55.860001 28.08 -36.951401
56.525002 28.08 -37.639
57.189999 28.08 -37.993599
57.855 28.08 -38.704601
58.52 28.08 -39.678398
59.185001 28.08 -40.738602
59.849998 28.08 -42.002201
60.514999 28.08 -42.7276
61.18 28.08 -42.5116
61.845001 28.08 -42.3568
62.509998 28.08 -42.273998
63.174999 28.08 -42.174999
63.84 28.08 -41.890598
64.504997 28.08 -41.68
65.169998 28.08 -41.6404
65.834999 28.08 -41.669201
66.5 28.08 -41.9842
67.165001 28.08 -42.373001
67.830002 28.08 -43.2244
68.495003 28.08 -44.216202
69.160004 28.08 -45.420399
69.824997 28.08 -46.784801
70.489998 28.08 -48.028599
71.154999 28.08 -49.421799
71.82 28.08 -inf
72.485001 28.08 -inf
73.150002 28.08 -inf
-76.474998 28.799999 -inf
-75.809998 28.799999 -inf
-75.144997 28.799999 -inf
-74.480003 28.799999 -inf
-73.815002 28.799999 -inf
-73.150002 28.799999 -inf
-72.485001 28.799999 -inf
-71.82 28.799999 -inf
-71.154999 28.799999 -inf
-70.489998 28.799999 -inf
-69.824997 28.799999 -inf
-69.160004 28.799999 -inf
-68.495003 28.799999 -inf
-67.830002 28.799999 -inf
-67.165001 28.799999 -inf
-66.5 28.799999 -inf
-65.834999 28.799999 -inf
-65.169998 28.799999 -inf
-64.504997 28.799999 -inf
-63.84 28.799999 -inf
-63.174999 28.799999 -inf
-62.509998 28.799999 -inf
-61.845001 28.799999 -inf
-61.18 28.799999 -inf
-60.514999 28.799999 -inf
-59.849998 28.799999 -inf
-59.185001 28.799999 -inf
-58.52 28.799999 -inf
-57.855 28.799999 -inf
-57.189999 28.799999 -inf
-56.525002 28.799999 -inf
-55.860001 28.799999 -inf
-55.195 28.799999 -inf
-54.529999 28.799999 -inf
-53.865002 28.799999 -inf
-53.200001 28.799999 -inf
-52.535 28.799999 -inf
-51.869999 28.799999 -64.532799
-51.205002 28.799999 -62.9398
-50.540001 28.799999 -61.867001
-49.875 28.799999 -61.262199
-49.209999 28.799999 -60.659199
-48.544998 28.799999 -59.9212
-47.880001 28.799999 -58.126598
-47.215 28.799999 -56.652401
-46.549999 28.799999 -55.8568
-45.884998 28.799999 -55.381599
-45.220001 28.799999 -54.757
-44.555 28.799999 -54.7066
-43.889999 28.799999 -54.625599
-43.224998 28.799999 -53.873199
-42.560001 28.799999 -54.051399
-41.895 28.799999 -53.840801
-41.23 28.799999 -53.756199
-40.564999 28.799999 -53.230598
-39.900002 28.799999 -52.678001
-39.235001 28.799999 -52.501598
-38.57 28.799999 -52.7374
-37.904999 28.799999 -52.3396
-37.240002 28.799999 -52.0354
-36.575001 28.799999 -51.889599
-35.91 28.799999 -51.527802
-35.244999 28.799999 -51.162399
-34.580002 28.799999 -51.185799
-33.915001 28.799999 -50.942799
-33.25 28.799999 -50.924801
-32.584999 28.799999 -50.694401
-31.92 28.799999 -49.992401
-31.254999 28.799999 -50.085999
-30.59 28.799999 -49.920399
-29.924999 28.799999 -49.776402
-29.26 28.799999 -49.639599
-28.594999 28.799999 -49.551399
-27.93 28.799999 -49.331799
-27.264999 28.799999 -49.072601
-26.6 28.799999 -48.714401
-25.934999 28.799999 -48.394001
-25.27 28.799999 -48.431801
-24.605 28.799999 -48.320202
-23.940001 28.799999 -48.203201
-23.275 28.799999 -48.178001
-22.610001 28.799999 -47.996201
-21.945 28.799999 -48.061001
-21.280001 28.799999 -47.517399
-20.615 28.799999 -47.332001
-19.950001 28.799999 -47.031399
-19.285 28.799999 -47.035
-18.620001 28.799999 -46.4986
-17.955 28.799999 -46.1134
-17.290001 28.799999 -45.4618
-16.625 28.799999 -53.263
-15.96 28.799999 -53.263
-15.295 28.799999 -53.263
-14.63 28.799999 -inf
-13.965 28.799999 -inf
-13.3 28.799999 -inf
-12.635 28.799999 -inf
-11.97 28.799999 -44.410599
-11.305 28.799999 -44.191002
-10.64 28.799999 -44.533001
-9.9750004 28.799999 -44.424999
-9.3100004 28.799999 -44.385399
-8.6450005 28.799999 -44.372799
-7.98 28.799999 -44.118999
-7.3150001 28.799999 -43.794998
-6.6500001 28.799999 -43.462002
-5.9850001 28.799999 -43.310799
-5.3200002 28.799999 -42.9814
-4.6550002 28.799999 -42.769001
-3.99 28.799999 -42.657398
-3.325 28.799999 -42.0508
-2.6600001 28.799999 -41.701599
-1.995 28.799999 -41.395599
-1.33 28.799999 -41.471199
-0.66500002 28.799999 -40.8358
1.4210855e-14 28.799999 -40.740398
0.66500002 28.799999 -40.245399
1.33 28.799999 -40.0546
1.995 28.799999 -39.700001
2.6600001 28.799999 -39.771999
3.325 28.799999 -39.536201
3.99 28.799999 -39.230202
4.6550002 28.799999 -38.962002
5.3200002 28.799999 -38.722599
5.9850001 28.799999 -38.783798
6.6500001 28.799999 -38.591202
7.3150001 28.799999 -38.359001
7.98 28.799999 -38.130402
8.6450005 28.799999 -37.764999
9.3100004 28.799999 -37.565201
9.9750004 28.799999 -37.530998
10.64 28.799999 -37.403198
11.305 28.799999 -37.158401
11.97 28.799999 -36.863201
12.635 28.799999 -36.751598
13.3 28.799999 -36.458199
13.965 28.799999 -36.172001
14.63 28.799999 -36.101799
15.295 28.799999 -35.785
15.96 28.799999 -35.765202
16.625 28.799999 -35.437599
17.290001 28.799999 -35.489799
17.955 28.799999 -35.424999
18.620001 28.799999 -35.122601
19.285 28.799999 -34.993
19.950001 28.799999 -34.848999
20.615 28.799999 -34.526798
21.280001 28.799999 -34.1614
21.945 28.799999 -34.024601
22.610001 28.799999 -33.731201
23.275 28.799999 -33.545799
23.940001 28.799999 -33.337002
24.605 28.799999 -33.139
25.27 28.799999 -33.043598
25.934999 28.799999 -32.861801
26.6 28.799999 -32.7952
27.264999 28.799999 -32.6926
27.93 28.799999 -32.653
28.594999 28.799999 -32.532398
29.26 28.799999 -32.3074
29.924999 28.799999 -32.0284
30.59 28.799999 -31.664801
31.254999 28.799999 -31.608999
31.92 28.799999 -31.716999
32.584999 28.799999 -31.500999
33.25 28.799999 -31.285
33.915001 28.799999 -31.187799
34.580002 28.799999 -30.827801
35.244999 28.799999 -30.611799
35.91 28.799999 -30.5506
36.575001 28.799999 -30.4048
37.240002 28.799999 -30.273399
37.904999 28.799999 -30.3904
38.57 28.799999 -30.113199
39.235001 28.799999 -30.0772
39.900002 28.799999 -30.0394
40.564999 28.799999 -29.952999
41.23 28.799999 -30.061001
41.895 28.799999 -30.118601
42.560001 28.799999 -30.482201
43.224998 28.799999 -30.826
43.889999 28.799999 -31.135599
44.555 28.799999 -31.312
45.220001 28.799999 -31.4146
45.884998 28.799999 -31.375
46.549999 28.799999 -31.5856
47.215 28.799999 -31.6954
47.880001 28.799999 -31.9888
48.544998 28.799999 -32.136398
49.209999 28.799999 -32.544998
49.875 28.799999 -32.967999
50.540001 28.799999 -33.439602
51.205002 28.799999 -33.783401
51.869999 28.799999 -34.1614
52.535 28.799999 -33.9688
53.200001 28.799999 -34.2658
53.865002 28.799999 -34.9426
54.529999 28.799999 -35.527599
55.195 28.799999 -36.404202
55.860001 28.799999 -36.996399
56.525002 28.799999 -37.4212
57.189999 28.799999 -37.790199
57.855 28.799999 -38.454399
58.52 28.799999 -40.0186
59.185001 28.799999 -40.8592
59.849998 28.799999 -41.573799
60.514999 28.799999 -41.994999
61.18 28.799999 -42.043598
61.845001 28.799999 -42.2668
62.509998 28.799999 -42.441399
63.174999 28.799999 -41.930199
63.84 28.799999 -41.714199
64.504997 28.799999 -41.418999
65.169998 28.799999 -41.548599
65.834999 28.799999 -41.712399
66.5 28.799999 -42.079601
67.165001 28.799999 -42.594398
67.830002 28.799999 -43.2244
68.495003 28.799999 -44.140598
69.160004 28.799999 -45.184601
69.824997 28.799999 -46.619202
70.489998 28.799999 -47.935001
71.154999 28.799999 -49.4146
71.82 28.799999 -inf
72.485001 28.799999 -inf
73.150002 28.799999 -inf
-76.474998 29.52 -inf
-75.809998 29.52 -inf
-75.144997 29.52 -inf
-74.480003 29.52 -inf
-73.815002 29.52 -inf
-73.150002 29.52 -inf
-72.485001 29.52 -inf
-71.82 29.52 -inf
-71.154999 29.52 -inf
-70.489998 29.52 -inf
-69.824997 29.52 -inf
-69.160004 29.52 -inf
-68.495003 29.52 -inf
-67.830002 29.52 -inf
-67.165001 29.52 -inf
-66.5 29.52 -inf
-65.834999 29.52 -inf
-65.169998 29.52 -inf
-64.504997 29.52 -inf
-63.84 29.52 -inf
-63.174999 29.52 -inf
-62.509998 29.52 -inf
-61.845001 29.52 -inf
-61.18 29.52 -inf
-60.514999 29.52 -inf
-59.849998 29.52 -inf
-59.185001 29.52 -inf
-58.52 29.52 -inf
-57.855 29.52 -inf
-57.189999 29.52 -inf
-56.525002 29.52 -inf
-55.860001 29.52 -inf
-55.195 29.52 -inf
-54.529999 29.52 -inf
-53.865002 29.52 -inf
-53.200001 29.52 -inf
-52.535 29.52 -inf
-51.869999 29.52 -65.191597
-51.205002 29.52 -64.057602
-50.540001 29.52 -62.212601
-49.875 29.52 -61.1506
-49.209999 29.52 -60.5224
-48.544998 29.52 -59.865398
-47.880001 29.52 -58.508202
-47.215 29.52 -56.9944
-46.549999 29.52 -56.2654
-45.884998 29.52 -55.451801
-45.220001 29.52 -54.9478
-44.555 29.52 -54.598598
-43.889999 29.52 -54.299801
-43.224998 29.52 -53.959599
-42.560001 29.52 -53.882198
-41.895 29.52 -53.819199
-41.23 29.52 -53.563599
-40.564999 29.52 -53.0938
-39.900002 29.52 -52.957001
-39.235001 29.52 -52.872398
-38.57 29.52 -52.6744
-37.904999 29.52 -52.283798
-37.240002 29.52 -51.8932
-36.575001 29.52 -51.7024
-35.91 29.52 -51.623199
-35.244999 29.52 -51.0994
-34.580002 29.52 -51.020199
-33.915001 29.52 -50.6548
-33.25 29.52 -50.6782
-32.584999 29.52 -50.260601
-31.92 29.52 -50.0266
-31.254999 29.52 -49.6828
-30.59 29.52 -49.747601
-29.924999 29.52 -49.618
-29.26 29.52 -49.385799
-28.594999 29.52 -49.276001
-27.93 29.52 -49.1464
-27.264999 29.52 -48.770199
-26.6 29.52 -48.525398
-25.934999 29.52 -48.485802
-25.27 29.52 -48.501999
-24.605 29.52 -48.217602
-23.940001 29.52 -47.952999
-23.275 29.52 -47.720798
-22.610001 29.52 -47.722599
-21.945 29.52 -47.461601
-21.280001 29.52 -47.3536
-20.615 29.52 -47.0476
-19.950001 29.52 -46.824402
-19.285 29.52 -47.007999
-18.620001 29.52 -46.790199
-17.955 29.52 -46.273602
-17.290001 29.52 -48.1222
-16.625 29.52 -44.766998
-15.96 29.52 -55.5868
-15.295 29.52 -inf
-14.63 29.52 -inf
-13.965 29.52 -inf
-13.3 29.52 -inf
-12.635 29.52 -inf
-11.97 29.52 -44.507801
-11.305 29.52 -44.381802
-10.64 29.52 -44.482601
-9.9750004 29.52 -44.225201
-9.3100004 29.52 -44.1838
-8.6450005 29.52 -44.090199
-7.98 29.52 -43.944401
-7.3150001 29.52 -43.773399
-6.6500001 29.52 -43.5322
-5.9850001 29.52 -43.019199
-5.3200002 29.52 -42.848202
-4.6550002 29.52 -42.234402
-3.99 29.52 -42.016602
-3.325 29.52 -41.9104
-2.6600001 29.52 -41.6008
-1.995 29.52 -41.221001
-1.33 29.52 -40.9492
-0.66500002 29.52 -40.546001
1.4210855e-14 29.52 -40.429001
0.66500002 29.52 -40.189602
1.33 29.52 -40.123001
1.995 29.52 -39.716202
2.6600001 29.52 -39.629799
3.325 29.52 -39.727001
3.99 29.52 -39.471401
4.6550002 29.52 -39.3652
5.3200002 29.52 -38.965599
5.9850001 29.52 -38.564201
6.6500001 29.52 -38.4184
7.3150001 29.52 -38.263599
7.98 29.52 -37.955799
8.6450005 29.52 -37.8316
9.3100004 29.52 -37.674999
9.9750004 29.52 -37.363602
10.64 29.52 -37.352798
11.305 29.52 -37.234001
11.97 29.52 -36.920799
12.635 29.52 -36.791199
13.3 29.52 -36.506802
13.965 29.52 -36.469002
14.63 29.52 -36.494202
15.295 29.52 -36.024399
15.96 29.52 -35.970402
16.625 29.52 -35.5438
17.290001 29.52 -35.5438
17.955 29.52 -35.353001
18.620001 29.52 -35.250401
19.285 29.52 -34.9156
19.950001 29.52 -35.047001
20.615 29.52 -34.530399
21.280001 29.52 -34.0984
21.945 29.52 -34.039001
22.610001 29.52 -33.871601
23.275 29.52 -33.567402
23.940001 29.52 -33.252399
24.605 29.52 -33.124599
25.27 29.52 -32.872601
25.934999 29.52 -32.624199
26.6 29.52 -32.6134
27.264999 29.52 -32.5378
27.93 29.52 -32.683601
28.594999 29.52 -32.276798
29.26 29.52 -32.150799
29.924999 29.52 -32.0158
30.59 29.52 -31.690001
31.254999 29.52 -31.697201
31.92 29.52 -31.7962
32.584999 29.52 -31.396601
33.25 29.52 -31.2526
33.915001 29.52 -31.0672
34.580002 29.52 -30.937599
35.244999 29.52 -30.8314
35.91 29.52 -30.7054
36.575001 29.52 -30.6082
37.240002 29.52 -30.5884
37.904999 29.52 -30.278799
38.57 29.52 -29.7514
39.235001 29.52 -29.926001
39.900002 29.52 -30.062799
40.564999 29.52 -30.2068
41.23 29.52 -30.2572
41.895 29.52 -30.554199
42.560001 29.52 -30.554199
43.224998 29.52 -30.636999
43.889999 29.52 -30.9988
44.555 29.52 -30.980801
45.220001 29.52 -31.087
45.884998 29.52 -31.2724
46.549999 29.52 -31.339001
47.215 29.52 -31.5532
47.880001 29.52 -32.139999
48.544998 29.52 -32.0896
49.209999 29.52 -32.298401
49.875 29.52 -32.955399
50.540001 29.52 -33.473801
51.205002 29.52 -33.974201
51.869999 29.52 -34.222599
52.535 29.52 -34.3666
53.200001 29.52 -34.514198
53.865002 29.52 -35.194599
54.529999 29.52 -35.842602
55.195 29.52 -36.622002
55.860001 29.52 -37.212399
56.525002 29.52 -37.390598
57.189999 29.52 -37.912601
57.855 29.52 -38.447201
58.52 29.52 -39.968201
59.185001 29.52 -40.945599
59.849998 29.52 -41.6908
60.514999 29.52 -41.982399
61.18 29.52 -42.108398
61.845001 29.52 -42.030998
62.509998 29.52 -41.975201
63.174999 29.52 -41.503601
63.84 29.52 -41.604401
64.504997 29.52 -41.287601
65.169998 29.52 -41.413601
65.834999 29.52 -41.498199
66.5 29.52 -41.688999
67.165001 29.52 -42.4198
67.830002 29.52 -42.997601
68.495003 29.52 -43.897598
69.160004 29.52 -45.006401
69.824997 29.52 -46.453602
70.489998 29.52 -48.015999
71.154999 29.52 -49.419998
71.82 29.52 -inf
72.485001 29.52 -inf
73.150002 29.52 -inf
-76.474998 30.24 -inf
-75.809998 30.24 -inf
-75.144997 30.24 -inf
-74.480003 30.24 -inf
-73.815002 30.24 -inf
-73.150002 30.24 -inf
-72.485001 30.24 -inf
-71.82 30.24 -inf
-71.154999 30.24 -inf
-70.489998 30.24 -inf
-69.824997 30.24 -inf
-69.160004 30.24 -inf
-68.495003 30.24 -inf
-67.830002 30.24 -inf
-67.165001 30.24 -inf
-66.5 30.24 -inf
-65.834999 30.24 -inf
-65.169998 30.24 -inf
-64.504997 30.24 -inf
-63.84 30.24 -inf
-63.174999 30.24 -inf
-62.509998 30.24 -inf
-61.845001 30.24 -inf
-61.18 30.24 -inf
-60.514999 30.24 -inf
-59.849998 30.24 -inf
-59.185001 30.24 -inf
-58.52 30.24 -inf
-57.855 30.24 -inf
-57.189999 30.24 -inf
-56.525002 30.24 -inf
-55.860001 30.24 -inf
-55.195 30.24 -inf
-54.529999 30.24 -inf
-53.865002 30.24 -inf
-53.200001 30.24 -inf
-52.535 30.24 -inf
-51.869999 30.24 -inf
-51.205002 30.24 -64.129601
-50.540001 30.24 -63.4132
-49.875 30.24 -61.4422
-49.209999 30.24 -60.606998
-48.544998 30.24 -60.034599
-47.880001 30.24 -58.994202
-47.215 30.24 -56.938599
-46.549999 30.24 -56.2006
-45.884998 30.24 -55.948601
-45.220001 30.24 -55.658798
-44.555 30.24 -55.287998
-43.889999 30.24 -54.6022
-43.224998 30.24 -54.159401
-42.560001 30.24 -53.956001
-41.895 30.24 -53.628399
-41.23 30.24 -53.3764
-40.564999 30.24 -52.931801
-39.900002 30.24 -53.237801
-39.235001 30.24 -52.695999
-38.57 30.24 -52.807598
-37.904999 30.24 -52.337799
-37.240002 30.24 -52.049801
-36.575001 30.24 -51.759998
-35.91 30.24 -51.5224
-35.244999 30.24 -51.400002
-34.580002 30.24 -51.425201
-33.915001 30.24 -50.77
-33.25 30.24 -50.7952
-32.584999 30.24 -50.741199
-31.92 30.24 -50.314602
-31.254999 30.24 -49.972599
-30.59 30.24 -49.645
-29.924999 30.24 -49.995998
-29.26 30.24 -49.632401
-28.594999 30.24 -49.277802
-27.93 30.24 -48.933998
-27.264999 30.24 -48.719799
-26.6 30.24 -48.2896
-25.934999 30.24 -48.311199
-25.27 30.24 -48.345402
-24.605 30.24 -48.2104
-23.940001 30.24 -47.843201
-23.275 30.24 -47.898998
-22.610001 30.24 -47.670399
-21.945 30.24 -47.4076
-21.280001 30.24 -47.2024
-20.615 30.24 -46.9198
-19.950001 30.24 -46.8424
-19.285 30.24 -46.577801
-18.620001 30.24 -46.450001
-17.955 30.24 -46.145802
-17.290001 30.24 -45.701199
-16.625 30.24 -53.981201
-15.96 30.24 -55.5868
-15.295 30.24 -inf
-14.63 30.24 -inf
-13.965 30.24 -inf
-13.3 30.24 -51.187599
-12.635 30.24 -44.9398
-11.97 30.24 -44.6068
-11.305 30.24 -44.6446
-10.64 30.24 -44.576199
-9.9750004 30.24 -44.000198
-9.3100004 30.24 -43.949799
-8.6450005 30.24 -43.937199
-7.98 30.24 -43.884998
-7.3150001 30.24 -43.683399
-6.6500001 30.24 -43.400799
-5.9850001 30.24 -42.927399
-5.3200002 30.24 -42.693401
-4.6550002 30.24 -41.986
-3.99 30.24 -41.8438
-3.325 30.24 -41.926601
-2.6600001 30.24 -41.458599
-1.995 30.24 -41.264198
-1.33 30.24 -41.165199
-0.66500002 30.24 -40.582001
1.4210855e-14 30.24 -40.645
0.66500002 30.24 -40.050999
1.33 30.24 -39.881802
1.995 30.24 -39.426399
2.6600001 30.24 -39.3922
3.325 30.24 -39.649601
3.99 30.24 -39.361599
4.6550002 30.24 -39.226601
5.3200002 30.24 -38.872002
5.9850001 30.24 -38.438202
6.6500001 30.24 -38.749599
7.3150001 30.24 -38.378799
7.98 30.24 -37.943199
8.6450005 30.24 -37.698399
9.3100004 30.24 -37.730801
9.9750004 30.24 -37.529202
10.64 30.24 -37.300598
11.305 30.24 -37.2052
11.97 30.24 -36.863201
12.635 30.24 -36.8452
13.3 30.24 -36.339401
13.965 30.24 -36.424
14.63 30.24 -36.1432
15.295 30.24 -36.279999
15.96 30.24 -35.905602
16.625 30.24 -35.883999
17.290001 30.24 -35.3908
17.955 30.24 -35.200001
18.620001 30.24 -35.02
19.285 30.24 -34.687
19.950001 30.24 -34.523201
20.615 30.24 -34.573601
21.280001 30.24 -34.3288
21.945 30.24 -34.056999
22.610001 30.24 -33.745602
23.275 30.24 -33.551201
23.940001 30.24 -33.263199
24.605 30.24 -32.996799
25.27 30.24 -32.726799
25.934999 30.24 -32.5396
26.6 30.24 -32.4478
27.264999 30.24 -32.4226
27.93 30.24 -32.5126
28.594999 30.24 -32.593601
29.26 30.24 -31.9618
29.924999 30.24 -31.817801
30.59 30.24 -31.4578
31.254999 30.24 -31.666599
31.92 30.24 -31.652201
32.584999 30.24 -31.351601
33.25 30.24 -31.3552
33.915001 30.24 -31.2328
34.580002 30.24 -30.8512
35.244999 30.24 -30.521799
35.91 30.24 -30.195999
36.575001 30.24 -30.188801
37.240002 30.24 -30.1276
37.904999 30.24 -29.870199
38.57 30.24 -30.2698
39.235001 30.24 -30.448
39.900002 30.24 -30.745001
40.564999 30.24 -30.649599
41.23 30.24 -30.5704
41.895 30.24 -30.874599
42.560001 30.24 -30.8764
43.224998 30.24 -30.7432
43.889999 30.24 -30.887199
44.555 30.24 -31.0492
45.220001 30.24 -31.328199
45.884998 30.24 -31.5928
46.549999 30.24 -31.889799
47.215 30.24 -32.096802
47.880001 30.24 -32.314602
48.544998 30.24 -32.3578
49.209999 30.24 -32.418999
49.875 30.24 -32.877998
50.540001 30.24 -33.3424
51.205002 30.24 -33.734798
51.869999 30.24 -34.305401
52.535 30.24 -34.462002
53.200001 30.24 -34.937199
53.865002 30.24 -35.4286
54.529999 30.24 -35.997398
55.195 30.24 -36.753399
55.860001 30.24 -37.086399
56.525002 30.24 -37.336601
57.189999 30.24 -38.018799
57.855 30.24 -39.0448
58.52 30.24 -39.986198
59.185001 30.24 -40.877201
59.849998 30.24 -41.608002
60.514999 30.24 -42.443199
61.18 30.24 -41.778999
61.845001 30.24 -41.582802
62.509998 30.24 -41.598999
63.174999 30.24 -41.523399
63.84 30.24 -41.280399
64.504997 30.24 -41.0644
65.169998 30.24 -41.238998
65.834999 30.24 -41.445999
66.5 30.24 -41.611599
67.165001 30.24 -42.2686
67.830002 30.24 -43.040798
68.495003 30.24 -43.910198
69.160004 30.24 -44.858799
69.824997 30.24 -46.232201
70.489998 30.24 -47.933201
71.154999 30.24 -49.2976
71.82 30.24 -inf
72.485001 30.24 -inf
73.150002 30.24 -inf
-76.474998 30.959999 -inf
-75.809998 30.959999 -inf
-75.144997 30.959999 -inf
-74.480003 30.959999 -inf
-73.815002 30.959999 -inf
-73.150002 30.959999 -inf
-72.485001 30.959999 -inf
-71.82 30.959999 -inf
-71.154999 30.959999 -inf
-70.489998 30.959999 -inf
-69.824997 30.959999 -inf
-69.160004 30.959999 -inf
-68.495003 30.959999 -inf
-67.830002 30.959999 -inf
-67.165001 30.959999 -inf
-66.5 30.959999 -inf
-65.834999 30.959999 -inf
-65.169998 30.959999 -inf
-64.504997 30.959999 -inf
-63.84 30.959999 -inf
-63.174999 30.959999 -inf
-62.509998 30.959999 -inf
-61.845001 30.959999 -inf
-61.18 30.959999 -inf
-60.514999 30.959999 -inf
-59.849998 30.959999 -inf
-59.185001 30.959999 -inf
-58.52 30.959999 -inf
-57.855 30.959999 -inf
-57.189999 30.959999 -inf
-56.525002 30.959999 -inf
-55.860001 30.959999 -inf
-55.195 30.959999 -inf
-54.529999 30.959999 -inf
-53.865002 30.959999 -inf
-53.200001 30.959999 -inf
-52.535 30.959999 -inf
-51.869999 30.959999 -inf
-51.205002 30.959999 -inf
-50.540001 30.959999 -64.3564
-49.875 30.959999 -62.2738
-49.209999 30.959999 -60.500801
-48.544998 30.959999 -59.953602
-47.880001 30.959999 -59.185001
-47.215 30.959999 -57.771999
-46.549999 30.959999 -56.6614
-45.884998 30.959999 -56.016998
-45.220001 30.959999 -55.833401
-44.555 30.959999 -55.682201
-43.889999 30.959999 -55.198002
-43.224998 30.959999 -54.674198
-42.560001 30.959999 -54.033401
-41.895 30.959999 -53.655399
-41.23 30.959999 -53.237801
-40.564999 30.959999 -52.739201
-39.900002 30.959999 -52.643799
-39.235001 30.959999 -52.449402
-38.57 30.959999 -52.620399
-37.904999 30.959999 -52.258598
-37.240002 30.959999 -51.929199
-36.575001 30.959999 -51.954399
-35.91 30.959999 -51.322601
-35.244999 30.959999 -51.448601
-34.580002 30.959999 -51.2686
-33.915001 30.959999 -50.912201
-33.25 30.959999 -50.7052
-32.584999 30.959999 -50.656601
-31.92 30.959999 -50.431599
-31.254999 30.959999 -50.071602
-30.59 30.959999 -49.826801
-29.924999 30.959999 -49.729599
-29.26 30.959999 -49.560398
-28.594999 30.959999 -49.268799
-27.93 30.959999 -49.040199
-27.264999 30.959999 -48.860199
-26.6 30.959999 -48.370602
-25.934999 30.959999 -48.231998
-25.27 30.959999 -48.214001
-24.605 30.959999 -48.194199
-23.940001 30.959999 -47.859402
-23.275 30.959999 -47.8522
-22.610001 30.959999 -47.4328
-21.945 30.959999 -47.4436
-21.280001 30.959999 -47.196999
-20.615 30.959999 -47.051201
-19.950001 30.959999 -46.8568
-19.285 30.959999 -46.8694
-18.620001 30.959999 -46.201599
-17.955 30.959999 -46.124199
-17.290001 30.959999 -45.996399
-16.625 30.959999 -46.070202
-15.96 30.959999 -55.5868
-15.295 30.959999 -50.303799
-14.63 30.959999 -50.303799
-13.965 30.959999 -45.278198
-13.3 30.959999 -45.229599
-12.635 30.959999 -45.136002
-11.97 30.959999 -44.864201
-11.305 30.959999 -44.766998
-10.64 30.959999 -44.572601
-9.9750004 30.959999 -44.284599
-9.3100004 30.959999 -44.2486
-8.6450005 30.959999 -44.1604
-7.98 30.959999 -43.921001
-7.3150001 30.959999 -43.6618
-6.6500001 30.959999 -43.3666
-5.9850001 30.959999 -42.972401
-5.3200002 30.959999 -42.616001
-4.6550002 30.959999 -42.236198
-3.99 30.959999 -42.133598
-3.325 30.959999 -41.824001
-2.6600001 30.959999 -41.377602
-1.995 30.959999 -41.456799
-1.33 30.959999 -40.981602
-0.66500002 30.959999 -40.666599
1.4210855e-14 30.959999 -40.4002
0.66500002 30.959999 -40.281399
1.33 30.959999 -39.973598
1.995 30.959999 -39.613602
2.6600001 30.959999 -39.5308
3.325 30.959999 -39.473202
3.99 30.959999 -39.399399
4.6550002 30.959999 -39.176201
5.3200002 30.959999 -39.3652
5.9850001 30.959999 -38.5336
6.6500001 30.959999 -38.735199
7.3150001 30.959999 -38.528198
7.98 30.959999 -38.218601
8.6450005 30.959999 -38.296001
9.3100004 30.959999 -38.054798
9.9750004 30.959999 -37.783001
10.64 30.959999 -37.441002
11.305 30.959999 -37.404999
11.97 30.959999 -37.097198
12.635 30.959999 -36.890202
13.3 30.959999 -36.625599
13.965 30.959999 -36.2332
14.63 30.959999 -36.1954
15.295 30.959999 -36.227798
15.96 30.959999 -35.959599
16.625 30.959999 -35.793999
17.290001 30.959999 -35.270199
17.955 30.959999 -35.309799
18.620001 30.959999 -35.041599
19.285 30.959999 -35.066799
19.950001 30.959999 -34.883202
20.615 30.959999 -34.534
21.280001 30.959999 -34.2262
21.945 30.959999 -33.959801
22.610001 30.959999 -34.017399
23.275 30.959999 -33.6106
23.940001 30.959999 -33.383801
24.605 30.959999 -33.002201
25.27 30.959999 -32.750198
25.934999 30.959999 -32.676399
26.6 30.959999 -32.341599
27.264999 30.959999 -32.381199
27.93 30.959999 -32.365002
28.594999 30.959999 -32.105801
29.26 30.959999 -31.857401
29.924999 30.959999 -31.882601
30.59 30.959999 -31.4074
31.254999 30.959999 -31.4956
31.92 30.959999 -31.596399
32.584999 30.959999 -31.6306
33.25 30.959999 -31.2778
33.915001 30.959999 -31.2922
34.580002 30.959999 -30.725201
35.244999 30.959999 -30.313
35.91 30.959999 -29.9818
36.575001 30.959999 -29.7316
37.240002 30.959999 -29.7208
37.904999 30.959999 -29.767599
38.57 30.959999 -29.728001
39.235001 30.959999 -29.933201
39.900002 30.959999 -30.7054
40.564999 30.959999 -30.725201
41.23 30.959999 -30.687401
41.895 30.959999 -30.878201
42.560001 30.959999 -30.6028
43.224998 30.959999 -30.680201
43.889999 30.959999 -30.930401
44.555 30.959999 -31.007799
45.220001 30.959999 -31.275999
45.884998 30.959999 -31.4506
46.549999 30.959999 -31.896999
47.215 30.959999 -31.7854
47.880001 30.959999 -31.951
48.544998 30.959999 -32.2066
49.209999 30.959999 -32.2066
49.875 30.959999 -32.751999
50.540001 30.959999 -33.405399
51.205002 30.959999 -33.812199
51.869999 30.959999 -34.395401
52.535 30.959999 -34.703201
53.200001 30.959999 -35.074001
53.865002 30.959999 -35.561798
54.529999 30.959999 -36.011799
55.195 30.959999 -36.7714
55.860001 30.959999 -37.248402
56.525002 30.959999 -37.604801
57.189999 30.959999 -38.2924
57.855 30.959999 -39.3022
58.52 30.959999 -40.058201
59.185001 30.959999 -40.862801
59.849998 30.959999 -41.712399
60.514999 30.959999 -42.020199
61.18 30.959999 -41.541401
61.845001 30.959999 -41.328999
62.509998 30.959999 -41.237202
63.174999 30.959999 -41.253399
63.84 30.959999 -41.1814
64.504997 30.959999 -41.0536
65.169998 30.959999 -40.956402
65.834999 30.959999 -41.2066
66.5 30.959999 -41.6782
67.165001 30.959999 -42.250599
67.830002 30.959999 -43.017399
68.495003 30.959999 -43.911999
69.160004 30.959999 -44.891201
69.824997 30.959999 -46.1278
70.489998 30.959999 -47.753201
71.154999 30.959999 -49.1572
71.82 30.959999 -50.980598
72.485001 30.959999 -inf
73.150002 30.959999 -inf
-76.474998 31.68 -inf
-75.809998 31.68 -inf
-75.144997 31.68 -inf
-74.480003 31.68 -inf
-73.815002 31.68 -inf
-73.150002 31.68 -inf
-72.485001 31.68 -inf
-71.82 31.68 -inf
-71.154999 31.68 -inf
-70.489998 31.68 -inf
-69.824997 31.68 -inf
-69.160004 31.68 -inf
-68.495003 31.68 -inf
-67.830002 31.68 -inf
-67.165001 31.68 -inf
-66.5 31.68 -inf
-65.834999 31.68 -inf
-65.169998 31.68 -inf
-64.504997 31.68 -inf
-63.84 31.68 -inf
-63.174999 31.68 -inf
-62.509998 31.68 -inf
-61.845001 31.68 -inf
-61.18 31.68 -inf
-60.514999 31.68 -inf
-59.849998 31.68 -inf
-59.185001 31.68 -inf
-58.52 31.68 -inf
-57.855 31.68 -inf
-57.189999 31.68 -inf
-56.525002 31.68 -inf
-55.860001 31.68 -inf
-55.195 31.68 -inf
-54.529999 31.68 -inf
-53.865002 31.68 -inf
-53.200001 31.68 -inf
-52.535 31.68 -inf
-51.869999 31.68 -inf
-51.205002 31.68 -inf
-50.540001 31.68 -inf
-49.875 31.68 -65.125
-49.209999 31.68 -61.064201
-48.544998 31.68 -60.504398
-47.880001 31.68 -59.507198
-47.215 31.68 -58.679199
-46.549999 31.68 -57.984402
-45.884998 31.68 -56.8144
-45.220001 31.68 -56.270802
-44.555 31.68 -55.952202
-43.889999 31.68 -55.417599
-43.224998 31.68 -54.758801
-42.560001 31.68 -54.247601
-41.895 31.68 -53.587002
-41.23 31.68 -53.342201
-40.564999 31.68 -53.079399
-39.900002 31.68 -52.600601
-39.235001 31.68 -52.6726
-38.57 31.68 -52.625801
-37.904999 31.68 -52.256802
-37.240002 31.68 -51.914799
-36.575001 31.68 -51.841
-35.91 31.68 -51.3964
-35.244999 31.68 -51.220001
-34.580002 31.68 -50.930199
-33.915001 31.68 -50.804199
-33.25 31.68 -50.543201
-32.584999 31.68 -50.188599
-31.92 31.68 -50.085999
-31.254999 31.68 -50.1292
-30.59 31.68 -49.7584
-29.924999 31.68 -49.697201
-29.26 31.68 -49.140999
-28.594999 31.68 -48.750401
-27.93 31.68 -48.986198
-27.264999 31.68 -48.7756
-26.6 31.68 -48.374199
-25.934999 31.68 -47.996201
-25.27 31.68 -47.900799
-24.605 31.68 -47.886398
-23.940001 31.68 -47.697399
-23.275 31.68 -47.447201
-22.610001 31.68 -47.386002
-21.945 31.68 -47.335602
-21.280001 31.68 -47.378799
-20.615 31.68 -47.272598
-19.950001 31.68 -47.3554
-19.285 31.68 -47.551601
-18.620001 31.68 -46.747002
-17.955 31.68 -46.444599
-17.290001 31.68 -46.149399
-16.625 31.68 -45.811001
-15.96 31.68 -45.722801
-15.295 31.68 -inf
-14.63 31.68 -inf
-13.965 31.68 -inf
-13.3 31.68 -44.894798
-12.635 31.68 -44.700401
-11.97 31.68 -44.846199
-11.305 31.68 -44.830002
-10.64 31.68 -44.6716
-9.9750004 31.68 -44.430401
-9.3100004 31.68 -44.4394
-8.6450005 31.68 -44.191002
-7.98 31.68 -43.962399
-7.3150001 31.68 -43.7374
-6.6500001 31.68 -43.262199
-5.9850001 31.68 -42.882401
-5.3200002 31.68 -42.5854
-4.6550002 31.68 -42.2146
-3.99 31.68 -41.923
-3.325 31.68 -41.786201
-2.6600001 31.68 -41.674599
-1.995 31.68 -41.2048
-1.33 31.68 -40.819599
-0.66500002 31.68 -40.616199
1.4210855e-14 31.68 -40.526199
0.66500002 31.68 -40.544201
1.33 31.68 -39.840401
1.995 31.68 -39.408401
2.6600001 31.68 -39.466
3.325 31.68 -39.307598
3.99 31.68 -39.188801
4.6550002 31.68 -38.913399
5.3200002 31.68 -38.742401
5.9850001 31.68 -38.897202
6.6500001 31.68 -38.555199
7.3150001 31.68 -38.204201
7.98 31.68 -37.820801
8.6450005 31.68 -37.890999
9.3100004 31.68 -37.547199
9.9750004 31.68 -37.459
10.64 31.68 -37.302399
11.305 31.68 -37.1008
11.97 31.68 -36.778599
12.635 31.68 -36.587799
13.3 31.68 -36.415001
13.965 31.68 -36.355598
14.63 31.68 -36.514
15.295 31.68 -36.132401
15.96 31.68 -35.869598
16.625 31.68 -35.765202
17.290001 31.68 -35.574402
17.955 31.68 -35.297199
18.620001 31.68 -35.021801
19.285 31.68 -34.897598
19.950001 31.68 -34.7626
20.615 31.68 -34.388199
21.280001 31.68 -34.3018
21.945 31.68 -33.972401
22.610001 31.68 -33.931
23.275 31.68 -33.601601
23.940001 31.68 -33.479198
24.605 31.68 -33.147999
25.27 31.68 -32.885201
25.934999 31.68 -32.919399
26.6 31.68 -32.559399
27.264999 31.68 -32.7034
27.93 31.68 -32.4478
28.594999 31.68 -32.022999
29.26 31.68 -31.794399
29.924999 31.68 -31.735001
30.59 31.68 -31.288601
31.254999 31.68 -31.5028
31.92 31.68 -31.393
32.584999 31.68 -31.42
33.25 31.68 -31.059999
33.915001 31.68 -31.105
34.580002 31.68 -30.844
35.244999 31.68 -30.3634
35.91 31.68 -30.169001
36.575001 31.68 -30.093399
37.240002 31.68 -29.695601
37.904999 31.68 -29.504801
38.57 31.68 -29.351801
39.235001 31.68 -29.9368
39.900002 31.68 -30.406601
40.564999 31.68 -30.583
41.23 31.68 -30.6262
41.895 31.68 -30.7432
42.560001 31.68 -30.644199
43.224998 31.68 -30.5956
43.889999 31.68 -30.7666
44.555 31.68 -30.887199
45.220001 31.68 -31.2724
45.884998 31.68 -31.4398
46.549999 31.68 -31.8286
47.215 31.68 -31.8484
47.880001 31.68 -31.704399
48.544998 31.68 -31.614401
49.209999 31.68 -32.0392
49.875 31.68 -32.7826
50.540001 31.68 -33.202
51.205002 31.68 -33.763599
51.869999 31.68 -34.174
52.535 31.68 -34.514198
53.200001 31.68 -35.037998
53.865002 31.68 -35.423199
54.529999 31.68 -36.055
55.195 31.68 -36.800201
55.860001 31.68 -37.487801
56.525002 31.68 -38.070999
57.189999 31.68 -38.5966
57.855 31.68 -39.269798
58.52 31.68 -40.006001
59.185001 31.68 -40.9744
59.849998 31.68 -41.451401
60.514999 31.68 -41.757401
61.18 31.68 -41.759201
61.845001 31.68 -40.995998
62.509998 31.68 -40.812401
63.174999 31.68 -41.194
63.84 31.68 -41.123798
64.504997 31.68 -41.008598
65.169998 31.68 -40.889801
65.834999 31.68 -41.077
66.5 31.68 -41.656601
67.165001 31.68 -42.2812
67.830002 31.68 -42.950802
68.495003 31.68 -43.744598
69.160004 31.68 -44.817402
69.824997 31.68 -45.967602
70.489998 31.68 -47.539001
71.154999 31.68 -48.741402
71.82 31.68 -50.5756
72.485001 31.68 -inf
73.150002 31.68 -inf
-76.474998 32.400002 -inf
-75.809998 32.400002 -inf
-75.144997 32.400002 -inf
-74.480003 32.400002 -inf
-73.815002 32.400002 -inf
-73.150002 32.400002 -inf
-72.485001 32.400002 -inf
-71.82 32.400002 -inf
-71.154999 32.400002 -inf
-70.489998 32.400002 -inf
-69.824997 32.400002 -inf
-69.160004 32.400002 -inf
-68.495003 32.400002 -inf
-67.830002 32.400002 -inf
-67.165001 32.400002 -inf
-66.5 32.400002 -inf
-65.834999 32.400002 -inf
-65.169998 32.400002 -inf
-64.504997 32.400002 -inf
-63.84 32.400002 -inf
-63.174999 32.400002 -inf
-62.509998 32.400002 -inf
-61.845001 32.400002 -inf
-61.18 32.400002 -inf
-60.514999 32.400002 -inf
-59.849998 32.400002 -inf
-59.185001 32.400002 -inf
-58.52 32.400002 -inf
-57.855 32.400002 -inf
-57.189999 32.400002 -inf
-56.525002 32.400002 -inf
-55.860001 32.400002 -inf
-55.195 32.400002 -inf
-54.529999 32.400002 -inf
-53.865002 32.400002 -inf
-53.200001 32.400002 -inf
-52.535 32.400002 -inf
-51.869999 32.400002 -inf
-51.205002 32.400002 -inf
-50.540001 32.400002 -inf
-49.875 32.400002 -inf
-49.209999 32.400002 -inf
-48.544998 32.400002 -60.805
-47.880001 32.400002 -59.629601
-47.215 32.400002 -58.794399
-46.549999 32.400002 -58.202202
-45.884998 32.400002 -57.3904
-45.220001 32.400002 -56.690201
-44.555 32.400002 -56.114201
-43.889999 32.400002 -55.5994
-43.224998 32.400002 -54.9874
-42.560001 32.400002 -54.495998
-41.895 32.400002 -53.855202
-41.23 32.400002 -53.5546
-40.564999 32.400002 -53.192799
-39.900002 32.400002 -52.9174
-39.235001 32.400002 -52.667198
-38.57 32.400002 -52.555599
-37.904999 32.400002 -52.323399
-37.240002 32.400002 -52.260399
-36.575001 32.400002 -51.993999
-35.91 32.400002 -51.502602
-35.244999 32.400002 -51.425201
-34.580002 32.400002 -51.1012
-33.915001 32.400002 -50.931999
-33.25 32.400002 -50.712399
-32.584999 32.400002 -50.418999
-31.92 32.400002 -50.049999
-31.254999 32.400002 -50.177799
-30.59 32.400002 -49.850201
-29.924999 32.400002 -49.715199
-29.26 32.400002 -49.308399
-28.594999 32.400002 -49.203999
-27.93 32.400002 -48.937599
-27.264999 32.400002 -48.799
-26.6 32.400002 -48.228401
-25.934999 32.400002 -48.034
-25.27 32.400002 -48.050201
-24.605 32.400002 -47.8288
-23.940001 32.400002 -47.427399
-23.275 32.400002 -46.968399
-22.610001 32.400002 -46.838799
-21.945 32.400002 -47.0872
-21.280001 32.400002 -47.114201
-20.615 32.400002 -47.013401
-19.950001 32.400002 -47.1394
-19.285 32.400002 -47.243801
-18.620001 32.400002 -47.146599
-17.955 32.400002 -46.660599
-17.290001 32.400002 -46.262798
-16.625 32.400002 -45.881199
-15.96 32.400002 -45.828999
-15.295 32.400002 -45.2728
-14.63 32.400002 -45.204399
-13.965 32.400002 -45.046001
-13.3 32.400002 -44.624802
-12.635 32.400002 -44.695
-11.97 32.400002 -44.7994
-11.305 32.400002 -44.7616
-10.64 32.400002 -44.540199
-9.9750004 32.400002 -44.4034
-9.3100004 32.400002 -40.0942
-8.6450005 32.400002 -44.239601
-7.98 32.400002 -44.054199
-7.3150001 32.400002 -43.690601
-6.6500001 32.400002 -43.172199
-5.9850001 32.400002 -42.761799
-5.3200002 32.400002 -42.535
-4.6550002 32.400002 -42.187599
-3.99 32.400002 -41.813202
-3.325 32.400002 -41.681801
-2.6600001 32.400002 -41.584599
-1.995 32.400002 -41.188599
-1.33 32.400002 -40.834
-0.66500002 32.400002 -40.715199
1.4210855e-14 32.400002 -40.585602
0.66500002 32.400002 -40.308399
1.33 32.400002 -39.980801
1.995 32.400002 -39.646
2.6600001 32.400002 -39.631599
3.325 32.400002 -39.345402
3.99 32.400002 -39.152802
4.6550002 32.400002 -38.990799
5.3200002 32.400002 -38.584
5.9850001 32.400002 -38.434601
6.6500001 32.400002 -38.859402
7.3150001 32.400002 -38.168201
7.98 32.400002 -37.9846
8.6450005 32.400002 -37.9198
9.3100004 32.400002 -37.662399
9.9750004 32.400002 -37.557999
10.64 32.400002 -37.509399
11.305 32.400002 -36.9856
11.97 32.400002 -36.8344
12.635 32.400002 -36.683201
13.3 32.400002 -36.582401
13.965 32.400002 -36.334
14.63 32.400002 -36.542801
15.295 32.400002 -36.082001
15.96 32.400002 -35.831799
16.625 32.400002 -35.7616
17.290001 32.400002 -35.596001
17.955 32.400002 -35.2342
18.620001 32.400002 -35.146
19.285 32.400002 -35.037998
19.950001 32.400002 -34.921001
20.615 32.400002 -34.436798
21.280001 32.400002 -34.1506
21.945 32.400002 -33.896801
22.610001 32.400002 -33.8284
23.275 32.400002 -33.516998
23.940001 32.400002 -33.562
24.605 32.400002 -33.261398
25.27 32.400002 -33.0112
25.934999 32.400002 -33.081402
26.6 32.400002 -32.962601
27.264999 32.400002 -32.726799
27.93 32.400002 -32.402802
28.594999 32.400002 -32.170601
29.26 32.400002 -31.7008
29.924999 32.400002 -31.5748
30.59 32.400002 -31.3894
31.254999 32.400002 -31.3498
31.92 32.400002 -31.5334
32.584999 32.400002 -31.141001
33.25 32.400002 -31.4272
33.915001 32.400002 -30.943001
34.580002 32.400002 -30.629801
35.244999 32.400002 -30.1024
35.91 32.400002 -30.5704
36.575001 32.400002 -30.233801
37.240002 32.400002 -29.7946
37.904999 32.400002 -29.296
38.57 32.400002 -29.493999
39.235001 32.400002 -30.073601
39.900002 32.400002 -30.636999
40.564999 32.400002 -30.527201
41.23 32.400002 -30.628
41.895 32.400002 -30.421
42.560001 32.400002 -30.9862
43.224998 32.400002 -30.872801
43.889999 32.400002 -30.6982
44.555 32.400002 -30.9268
45.220001 32.400002 -31.2202
45.884998 32.400002 -31.518999
46.549999 32.400002 -31.895201
47.215 32.400002 -31.924
47.880001 32.400002 -31.895201
48.544998 32.400002 -32.060799
49.209999 32.400002 -32.379398
49.875 32.400002 -32.737598
50.540001 32.400002 -33.119202
51.205002 32.400002 -33.633999
51.869999 32.400002 -34.184799
52.535 32.400002 -34.615002
53.200001 32.400002 -35.091999
53.865002 32.400002 -35.689602
54.529999 32.400002 -36.2962
55.195 32.400002 -36.848801
55.860001 32.400002 -37.583199
56.525002 32.400002 -38.116001
57.189999 32.400002 -38.706402
57.855 32.400002 -39.462399
58.52 32.400002 -40.1446
59.185001 32.400002 -40.891602
59.849998 32.400002 -41.739399
60.514999 32.400002 -42.326199
61.18 32.400002 -41.489201
61.845001 32.400002 -40.864601
62.509998 32.400002 -40.9384
63.174999 32.400002 -40.9492
63.84 32.400002 -41.0536
64.504997 32.400002 -40.817799
65.169998 32.400002 -40.787201
65.834999 32.400002 -40.699001
66.5 32.400002 -41.433399
67.165001 32.400002 -42.016602
67.830002 32.400002 -42.707802
68.495003 32.400002 -43.773399
69.160004 32.400002 -44.815601
69.824997 32.400002 -45.764198
70.489998 32.400002 -47.2798
71.154999 32.400002 -48.804401
71.82 32.400002 -50.014
72.485001 32.400002 -inf
73.150002 32.400002 -inf
-76.474998 33.119999 -inf
-75.809998 33.119999 -inf
-75.144997 33.119999 -inf
-74.480003 33.119999 -inf
-73.815002 33.119999 -inf
-73.150002 33.119999 -inf
-72.485001 33.119999 -inf
-71.82 33.119999 -inf
-71.154999 33.119999 -inf
-70.489998 33.119999 -inf
-69.824997 33.119999 -inf
-69.160004 33.119999 -inf
-68.495003 33.119999 -inf
-67.830002 33.119999 -inf
-67.165001 33.119999 -inf
-66.5 33.119999 -inf
-65.834999 33.119999 -inf
-65.169998 33.119999 -inf
-64.504997 33.119999 -inf
-63.84 33.119999 -inf
-63.174999 33.119999 -inf
-62.509998 33.119999 -inf
-61.845001 33.119999 -inf
-61.18 33.119999 -inf
-60.514999 33.119999 -inf
-59.849998 33.119999 -inf
-59.185001 33.119999 -inf
-58.52 33.119999 -inf
-57.855 33.119999 -inf
-57.189999 33.119999 -inf
-56.525002 33.119999 -inf
-55.860001 33.119999 -inf
-55.195 33.119999 -inf
-54.529999 33.119999 -inf
-53.865002 33.119999 -inf
-53.200001 33.119999 -inf
-52.535 33.119999 -inf
-51.869999 33.119999 -inf
-51.205002 33.119999 -inf
-50.540001 33.119999 -inf
-49.875 33.119999 -inf
-49.209999 33.119999 -inf
-48.544998 33.119999 -inf
-47.880001 33.119999 -60.398201
-47.215 33.119999 -59.879799
-46.549999 33.119999 -59.444199
-45.884998 33.119999 -58.459599
-45.220001 33.119999 -57.496601
-44.555 33.119999 -56.506599
-43.889999 33.119999 -55.840599
-43.224998 33.119999 -55.361801
-42.560001 33.119999 -54.874001
-41.895 33.119999 -54.2458
-41.23 33.119999 -53.5816
-40.564999 33.119999 -53.482601
-39.900002 33.119999 -53.131599
-39.235001 33.119999 -52.7878
-38.57 33.119999 -52.433201
-37.904999 33.119999 -52.215401
-37.240002 33.119999 -51.887798
-36.575001 33.119999 -51.644798
-35.91 33.119999 -51.479198
-35.244999 33.119999 -51.441399
-34.580002 33.119999 -51.167801
-33.915001 33.119999 -51.128201
-33.25 33.119999 -50.726799
-32.584999 33.119999 -50.444199
-31.92 33.119999 -50.058998
-31.254999 33.119999 -49.969002
-30.59 33.119999 -49.841202
-29.924999 33.119999 -49.756599
-29.26 33.119999 -49.509998
-28.594999 33.119999 -49.193199
-27.93 33.119999 -49.195
-27.264999 33.119999 -48.844002
-26.6 33.119999 -48.493
-25.934999 33.119999 -48.1078
-25.27 33.119999 -48.397598
-24.605 33.119999 -48.086201
-23.940001 33.119999 -47.441799
-23.275 33.119999 -46.9702
-22.610001 33.119999 -46.882
-21.945 33.119999 -46.980999
-21.280001 33.119999 -46.975601
-20.615 33.119999 -47.096199
-19.950001 33.119999 -47.038601
-19.285 33.119999 -46.622799
-18.620001 33.119999 -46.327599
-17.955 33.119999 -46.070202
-17.290001 33.119999 -inf
-16.625 33.119999 -inf
-15.96 33.119999 -45.882999
-15.295 33.119999 -35.608601
-14.63 33.119999 -49.3102
-13.965 33.119999 -49.3102
-13.3 33.119999 -44.6572
-12.635 33.119999 -44.770599
-11.97 33.119999 -44.766998
-11.305 33.119999 -44.623001
-10.64 33.119999 -44.5816
-9.9750004 33.119999 -44.326
-9.3100004 33.119999 -44.380001
-8.6450005 33.119999 -44.342201
-7.98 33.119999 -44.001999
-7.3150001 33.119999 -43.769798
-6.6500001 33.119999 -43.346802
-5.9850001 33.119999 -42.947201
-5.3200002 33.119999 -42.461201
-4.6550002 33.119999 -41.906799
-3.99 33.119999 -41.631401
-3.325 33.119999 -41.451401
-2.6600001 33.119999 -41.336201
-1.995 33.119999 -41.464001
-1.33 33.119999 -41.073399
-0.66500002 33.119999 -40.8466
1.4210855e-14 33.119999 -40.625198
0.66500002 33.119999 -40.103199
1.33 33.119999 -40.096001
1.995 33.119999 -39.413799
2.6600001 33.119999 -39.304001
3.325 33.119999 -39.217602
3.99 33.119999 -39.1222
4.6550002 33.119999 -38.872002
5.3200002 33.119999 -38.7244
5.9850001 33.119999 -38.382401
6.6500001 33.119999 -38.409401
7.3150001 33.119999 -37.980999
7.98 33.119999 -37.853199
8.6450005 33.119999 -37.8316
9.3100004 33.119999 -37.644402
9.9750004 33.119999 -37.838799
10.64 33.119999 -36.956799
11.305 33.119999 -37.442799
11.97 33.119999 -37.297001
12.635 33.119999 -36.748001
13.3 33.119999 -36.6436
13.965 33.119999 -36.6418
14.63 33.119999 -36.240398
15.295 33.119999 -35.909199
15.96 33.119999 -35.723801
16.625 33.119999 -35.5672
17.290001 33.119999 -35.209
17.955 33.119999 -35.259399
18.620001 33.119999 -34.958801
19.285 33.119999 -35.173
19.950001 33.119999 -34.728401
20.615 33.119999 -34.463799
21.280001 33.119999 -34.049801
21.945 33.119999 -33.941799
22.610001 33.119999 -33.788799
23.275 33.119999 -33.666401
23.940001 33.119999 -33.704201
24.605 33.119999 -33.221802
25.27 33.119999 -32.827599
25.934999 33.119999 -33.016602
26.6 33.119999 -32.714199
27.264999 33.119999 -32.651199
27.93 33.119999 -32.521599
28.594999 33.119999 -32.0266
29.26 33.119999 -31.8484
29.924999 33.119999 -31.621599
30.59 33.119999 -31.576599
31.254999 33.119999 -31.455999
31.92 33.119999 -31.3894
32.584999 33.119999 -31.3102
33.25 33.119999 -31.0474
33.915001 33.119999 -30.917801
34.580002 33.119999 -31.33
35.244999 33.119999 -30.6784
35.91 33.119999 -30.1276
36.575001 33.119999 -30.1744
37.240002 33.119999 -30.223
37.904999 33.119999 -30.048401
38.57 33.119999 -29.915199
39.235001 33.119999 -29.864799
39.900002 33.119999 -30.887199
40.564999 33.119999 -30.694599
41.23 33.119999 -30.599199
41.895 33.119999 -30.565001
42.560001 33.119999 -30.860201
43.224998 33.119999 -30.6064
43.889999 33.119999 -30.6388
44.555 33.119999 -30.9394
45.220001 33.119999 -31.281401
45.884998 33.119999 -31.7332
46.549999 33.119999 -31.544201
47.215 33.119999 -31.761999
47.880001 33.119999 -31.9258
48.544998 33.119999 -32.1166
49.209999 33.119999 -32.3578
49.875 33.119999 -32.732201
50.540001 33.119999 -33.056198
51.205002 33.119999 -33.5728
51.869999 33.119999 -34.255001
52.535 33.119999 -34.6726
53.200001 33.119999 -35.176601
53.865002 33.119999 -35.534801
54.529999 33.119999 -36.096401
55.195 33.119999 -36.801998
55.860001 33.119999 -37.5256
56.525002 33.119999 -37.9468
57.189999 33.119999 -38.652401
57.855 33.119999 -39.323799
58.52 33.119999 -40.006001
59.185001 33.119999 -40.814201
59.849998 33.119999 -42.319
60.514999 33.119999 -42.443199
61.18 33.119999 -41.404598
61.845001 33.119999 -40.882599
62.509998 33.119999 -40.5676
63.174999 33.119999 -40.790798
63.84 33.119999 -40.6954
64.504997 33.119999 -40.522598
65.169998 33.119999 -40.533401
65.834999 33.119999 -40.832199
66.5 33.119999 -41.183201
67.165001 33.119999 -41.847401
67.830002 33.119999 -42.679001
68.495003 33.119999 -43.6726
69.160004 33.119999 -44.768799
69.824997 33.119999 -45.965801
70.489998 33.119999 -47.195202
71.154999 33.119999 -48.509201
71.82 33.119999 -49.769199
72.485001 33.119999 -inf
73.150002 33.119999 -inf
-76.474998 33.84 -inf
-75.809998 33.84 -inf
-75.144997 33.84 -inf
-74.480003 33.84 -inf
-73.815002 33.84 -inf
-73.150002 33.84 -inf
-72.485001 33.84 -inf
-71.82 33.84 -inf
-71.154999 33.84 -inf
-70.489998 33.84 -inf
-69.824997 33.84 -inf
-69.160004 33.84 -inf
-68.495003 33.84 -inf
-67.830002 33.84 -inf
-67.165001 33.84 -inf
-66.5 33.84 -inf
-65.834999 33.84 -inf
-65.169998 33.84 -inf
-64.504997 33.84 -inf
-63.84 33.84 -inf
-63.174999 33.84 -inf
-62.509998 33.84 -inf
-61.845001 33.84 -inf
-61.18 33.84 -inf
-60.514999 33.84 -inf
-59.849998 33.84 -inf
-59.185001 33.84 -inf
-58.52 33.84 -inf
-57.855 33.84 -inf
-57.189999 33.84 -inf
-56.525002 33.84 -inf
-55.860001 33.84 -inf
-55.195 33.84 -inf
-54.529999 33.84 -inf
-53.865002 33.84 -inf
-53.200001 33.84 -inf
-52.535 33.84 -inf
-51.869999 33.84 -inf
-51.205002 33.84 -inf
-50.540001 33.84 -inf
-49.875 33.84 -inf
-49.209999 33.84 -inf
-48.544998 33.84 -inf
-47.880001 33.84 -73.775803
-47.215 33.84 -74.182602
-46.549999 33.84 -74.207802
-45.884998 33.84 -74.207802
-45.220001 33.84 -74.207802
-44.555 33.84 -58.331799
-43.889999 33.84 -57.0952
-43.224998 33.84 -55.8424
-42.560001 33.84 -54.994598
-41.895 33.84 -54.558998
-41.23 33.84 -53.9002
-40.564999 33.84 -53.280998
-39.900002 33.84 -52.8256
-39.235001 33.84 -52.368401
-38.57 33.84 -52.0606
-37.904999 33.84 -53.689602
-37.240002 33.84 -51.423401
-36.575001 33.84 -51.308201
-35.91 33.84 -51.115601
-35.244999 33.84 -50.969799
-34.580002 33.84 -50.924801
-33.915001 33.84 -50.8312
-33.25 33.84 -50.584599
-32.584999 33.84 -50.213799
-31.92 33.84 -49.852001
-31.254999 33.84 -49.954601
-30.59 33.84 -49.653999
-29.924999 33.84 -49.626999
-29.26 33.84 -49.591
-28.594999 33.84 -49.213001
-27.93 33.84 -49.0564
-27.264999 33.84 -48.7234
-26.6 33.84 -48.491199
-25.934999 33.84 -48.129398
-25.27 33.84 -48.125801
-24.605 33.84 -47.940399
