# .PCD v0.7 - Point Cloud Data file format
VERSION 0.7
FIELDS x y z
SIZE 4 4 4
TYPE F F F
COUNT 1 1 1
WIDTH 1724
HEIGHT 1
VIEWPOINT 0 0 0 1 0 0 0
POINTS 1724
DATA ascii
62.643002 3.96 -55.813599
63.307999 3.96 -56.278
63.973 3.96 -56.9296
64.638 3.96 -57.476799
65.303001 3.96 -58.265202
65.968002 3.96 -58.589199
66.633003 3.96 -59.030201
67.297997 3.96 -59.687199
67.962997 3.96 -60.207401
68.627998 3.96 -60.954399
69.292999 3.96 -62.0704
69.958 3.96 -63.7048
70.623001 3.96 -inf
71.288002 3.96 -inf
71.953003 3.96 -inf
72.617996 3.96 -inf
73.282997 3.96 -inf
73.947998 3.96 -inf
74.612999 3.96 -inf
75.278 3.96 -inf
75.943001 3.96 -inf
76.608002 3.96 -inf
77.273003 3.96 -inf
77.938004 3.96 -inf
78.602997 3.96 -inf
-58.387001 4.6799998 -inf
-57.722 4.6799998 -inf
-57.056999 4.6799998 -inf
-56.391998 4.6799998 -inf
-55.727001 4.6799998 -inf
-55.062 4.6799998 -inf
-54.396999 4.6799998 -inf
-53.731998 4.6799998 -inf
-53.067001 4.6799998 -inf
-52.402 4.6799998 -inf
-51.737 4.6799998 -inf
-51.071999 4.6799998 -inf
-50.407001 4.6799998 -51.4198
-49.742001 4.6799998 -50.120201
-49.077 4.6799998 -48.930401
-48.411999 4.6799998 -47.945801
-47.747002 4.6799998 -47.4688
-47.082001 4.6799998 -46.8424
-46.417 4.6799998 -46.412201
-45.751999 4.6799998 -45.945999
-45.087002 4.6799998 -45.773201
-44.422001 4.6799998 -45.355598
-43.757 4.6799998 -45.229599
-43.091999 4.6799998 -45.442001
-42.426998 4.6799998 -46.0648
-41.762001 4.6799998 -47.294201
-41.097 4.6799998 -46.630001
-40.431999 4.6799998 -45.760601
-39.766998 4.6799998 -46.720001
-39.102001 4.6799998 -47.3176
-38.437 4.6799998 -46.682201
-37.771999 4.6799998 -46.928799
-37.106998 4.6799998 -48.051998
-36.442001 4.6799998 -48.170799
-35.777 4.6799998 -49.205799
-35.112 4.6799998 -49.943802
-34.446999 4.6799998 -50.467602
-33.782001 4.6799998 -50.581001
-33.117001 4.6799998 -50.750198
-32.452 4.6799998 -51.0742
-31.787001 4.6799998 -51.441399
-31.122 4.6799998 -52.2118
-30.457001 4.6799998 -52.4818
-29.792 4.6799998 -52.573601
-29.127001 4.6799998 -52.746399
-28.462 4.6799998 -52.528599
-27.797001 4.6799998 -51.657398
-27.132 4.6799998 -51.4828
-26.466999 4.6799998 -50.766399
-25.802 4.6799998 -49.7332
-25.136999 4.6799998 -49.245399
-24.472 4.6799998 -48.257198
-23.806999 4.6799998 -47.999802
-23.142 4.6799998 -47.206001
-22.476999 4.6799998 -46.882
-21.812 4.6799998 -46.003601
-21.146999 4.6799998 -46.09
-20.482 4.6799998 -44.992001
-19.816999 4.6799998 -44.486198
-19.152 4.6799998 -43.701401
-18.487 4.6799998 -43.436798
-17.822001 4.6799998 -42.993999
-17.157 4.6799998 -42.515202
-16.492001 4.6799998 -41.9212
-15.827 4.6799998 -41.586399
-15.162 4.6799998 -41.275002
-14.497 4.6799998 -40.598202
-13.832 4.6799998 -40.155399
-13.167 4.6799998 -39.984402
-12.502 4.6799998 -39.3778
-11.837 4.6799998 -39.167198
-11.172 4.6799998 -38.542599
-10.507 4.6799998 -38.209599
-9.842 4.6799998 -37.631802
-9.177 4.6799998 -37.5868
-8.5120001 4.6799998 -37.138599
-7.8470001 4.6799998 -36.877602
-7.1820002 4.6799998 -35.7868
-6.5170002 4.6799998 -35.387199
-5.8520002 4.6799998 -35.054199
-5.1869998 4.6799998 -34.638401
-4.5219998 4.6799998 -34.040798
-3.8570001 4.6799998 -33.632198
-3.1919999 4.6799998 -33.218201
-2.527 4.6799998 -33.027401
-1.862 4.6799998 -32.721401
-1.197 4.6799998 -32.289398
-0.53200001 4.6799998 -32.077
0.133 4.6799998 -32.010399
0.79799998 4.6799998 -31.708
1.4630001 4.6799998 -31.3696
2.128 4.6799998 -31.1392
2.793 4.6799998 -30.982599
3.4579999 4.6799998 -30.872801
4.1230001 4.6799998 -30.712601
4.7880001 4.6799998 -30.5578
5.4530001 4.6799998 -30.448
6.118 4.6799998 -30.375999
6.783 4.6799998 -30.232
7.448 4.6799998 -30.205
8.1129999 4.6799998 -30.080799
8.7779999 4.6799998 -29.9548
9.4429998 4.6799998 -30.367001
10.108 4.6799998 -30.674801
10.773 4.6799998 -30.887199
11.438 4.6799998 -31.045601
12.103 4.6799998 -31.033001
12.768 4.6799998 -31.1644
13.433 4.6799998 -31.2724
14.098 4.6799998 -31.4254
14.763 4.6799998 -31.195
15.428 4.6799998 -31.5874
16.093 4.6799998 -31.8412
16.757999 4.6799998 -31.681
17.423 4.6799998 -31.7206
18.087999 4.6799998 -31.7656
18.753 4.6799998 -31.511801
19.417999 4.6799998 -31.5874
20.083 4.6799998 -31.698999
20.747999 4.6799998 -32.183201
21.413 4.6799998 -32.318199
22.077999 4.6799998 -32.195801
22.743 4.6799998 -32.609798
23.408001 4.6799998 -32.6674
24.073 4.6799998 -32.741199
24.738001 4.6799998 -32.4226
25.403 4.6799998 -32.811401
26.068001 4.6799998 -32.834801
26.733 4.6799998 -33.5242
27.398001 4.6799998 -33.308201
28.063 4.6799998 -33.5602
28.728001 4.6799998 -34.4296
29.393 4.6799998 -34.5214
30.058001 4.6799998 -34.3162
30.723 4.6799998 -34.991199
31.388 4.6799998 -35.113602
32.053001 4.6799998 -35.545601
32.717999 4.6799998 -35.7742
33.382999 4.6799998 -35.792198
34.048 4.6799998 -36.184601
34.713001 4.6799998 -36.352001
35.377998 4.6799998 -36.8452
36.042999 4.6799998 -37.1548
36.708 4.6799998 -37.849602
37.373001 4.6799998 -37.8964
38.037998 4.6799998 -38.575001
38.702999 4.6799998 -38.825199
39.368 4.6799998 -39.255402
40.033001 4.6799998 -39.754002
40.698002 4.6799998 -40.382198
41.362999 4.6799998 -41.058998
42.028 4.6799998 -41.7178
42.693001 4.6799998 -42.308201
43.358002 4.6799998 -42.632198
44.022999 4.6799998 -43.208199
44.688 4.6799998 -43.933601
45.353001 4.6799998 -44.9506
46.018002 4.6799998 -45.805599
46.682999 4.6799998 -46.837002
47.348 4.6799998 -47.458
48.013 4.6799998 -48.152802
48.678001 4.6799998 -48.912399
49.342999 4.6799998 -49.087002
50.007999 4.6799998 -49.108601
50.673 4.6799998 -49.0816
51.338001 4.6799998 -48.869202
52.002998 4.6799998 -49.083401
52.667999 4.6799998 -49.140999
53.333 4.6799998 -49.4146
53.998001 4.6799998 -50.087799
54.662998 4.6799998 -50.240799
55.327999 4.6799998 -50.825802
55.993 4.6799998 -51.641201
56.658001 4.6799998 -52.182999
57.323002 4.6799998 -52.1866
57.987999 4.6799998 -52.692402
58.653 4.6799998 -52.8148
59.318001 4.6799998 -53.983002
59.983002 4.6799998 -54.082001
60.647999 4.6799998 -54.2854
61.313 4.6799998 -54.7714
61.978001 4.6799998 -55.298801
62.643002 4.6799998 -55.718201
63.307999 4.6799998 -56.231201
63.973 4.6799998 -56.958401
64.638 4.6799998 -57.564999
65.303001 4.6799998 -58.0564
65.968002 4.6799998 -58.610802
66.633003 4.6799998 -59.104
67.297997 4.6799998 -59.8186
67.962997 4.6799998 -60.499001
68.627998 4.6799998 -61.170399
69.292999 4.6799998 -62.075802
69.958 4.6799998 -63.389801
70.623001 4.6799998 -inf
71.288002 4.6799998 -inf
71.953003 4.6799998 -inf
72.617996 4.6799998 -inf
73.282997 4.6799998 -inf
73.947998 4.6799998 -inf
74.612999 4.6799998 -inf
75.278 4.6799998 -inf
75.943001 4.6799998 -inf
76.608002 4.6799998 -inf
77.273003 4.6799998 -inf
77.938004 4.6799998 -inf
78.602997 4.6799998 -inf
-58.387001 5.4000001 -inf
-57.722 5.4000001 -inf
-57.056999 5.4000001 -inf
-56.391998 5.4000001 -inf
-55.727001 5.4000001 -inf
-55.062 5.4000001 -inf
-54.396999 5.4000001 -inf
-53.731998 5.4000001 -inf
-53.067001 5.4000001 -inf
-52.402 5.4000001 -inf
-51.737 5.4000001 -inf
-51.071999 5.4000001 -inf
-50.407001 5.4000001 -51.310001
-49.742001 5.4000001 -50.303799
-49.077 5.4000001 -49.123001
-48.411999 5.4000001 -47.990799
-47.747002 5.4000001 -47.389599
-47.082001 5.4000001 -46.534599
-46.417 5.4000001 -46.541801
-45.751999 5.4000001 -45.792999
-45.087002 5.4000001 -45.595001
-44.422001 5.4000001 -45.319599
-43.757 5.4000001 -45.929798
-43.091999 5.4000001 -45.978401
-42.426998 5.4000001 -45.7048
-41.762001 5.4000001 -46.208801
-41.097 5.4000001 -46.718201
-40.431999 5.4000001 -47.3158
-39.766998 5.4000001 -46.396
-39.102001 5.4000001 -46.518398
-38.437 5.4000001 -47.409401
-37.771999 5.4000001 -46.979198
-37.106998 5.4000001 -47.720798
-36.442001 5.4000001 -48.572201
-35.777 5.4000001 -49.922199
-35.112 5.4000001 -50.082401
-34.446999 5.4000001 -50.2174
-33.782001 5.4000001 -50.528801
-33.117001 5.4000001 -50.944599
-32.452 5.4000001 -51.200199
-31.787001 5.4000001 -51.124599
-31.122 5.4000001 -52.024601
-30.457001 5.4000001 -52.215401
-29.792 5.4000001 -52.2892
-29.127001 5.4000001 -52.690601
-28.462 5.4000001 -52.400799
-27.797001 5.4000001 -51.8284
-27.132 5.4000001 -51.428799
-26.466999 5.4000001 -50.559399
-25.802 5.4000001 -49.828602
-25.136999 5.4000001 -49.609001
-24.472 5.4000001 -48.759399
-23.806999 5.4000001 -47.978199
-23.142 5.4000001 -47.153801
-22.476999 5.4000001 -46.5742
-21.812 5.4000001 -45.953201
-21.146999 5.4000001 -45.487
-20.482 5.4000001 -44.812
-19.816999 5.4000001 -44.297199
-19.152 5.4000001 -44.059601
-18.487 5.4000001 -43.550201
-17.822001 5.4000001 -42.891399
-17.157 5.4000001 -42.538601
-16.492001 5.4000001 -41.753799
-15.827 5.4000001 -41.651199
-15.162 5.4000001 -41.105801
-14.497 5.4000001 -40.679199
-13.832 5.4000001 -40.396599
-13.167 5.4000001 -39.8386
-12.502 5.4000001 -39.320202
-11.837 5.4000001 -39.260799
-11.172 5.4000001 -38.398602
-10.507 5.4000001 -37.909
-9.842 5.4000001 -37.808201
-9.177 5.4000001 -37.439201
-8.5120001 5.4000001 -37.109798
-7.8470001 5.4000001 -36.742599
-7.1820002 5.4000001 -35.756199
-6.5170002 5.4000001 -35.243198
-5.8520002 5.4000001 -34.845402
-5.1869998 5.4000001 -34.357601
-4.5219998 5.4000001 -34.078602
-3.8570001 5.4000001 -33.635799
-3.1919999 5.4000001 -33.043598
-2.527 5.4000001 -32.7052
-1.862 5.4000001 -32.492802
-1.197 5.4000001 -32.213799
-0.53200001 5.4000001 -32.075199
0.133 5.4000001 -31.864599
0.79799998 5.4000001 -31.4848
1.4630001 5.4000001 -31.33
2.128 5.4000001 -31.1842
2.793 5.4000001 -30.905199
3.4579999 5.4000001 -30.737801
4.1230001 5.4000001 -30.5056
4.7880001 5.4000001 -30.52
5.4530001 5.4000001 -30.221201
6.118 5.4000001 -30.097
6.783 5.4000001 -30.003401
7.448 5.4000001 -29.9872
8.1129999 5.4000001 -29.810801
8.7779999 5.4000001 -29.870199
9.4429998 5.4000001 -30.2806
10.108 5.4000001 -30.610001
10.773 5.4000001 -30.674801
11.438 5.4000001 -30.892599
12.103 5.4000001 -31.0744
12.768 5.4000001 -30.879999
13.433 5.4000001 -30.9214
14.098 5.4000001 -31.0996
14.763 5.4000001 -31.256201
15.428 5.4000001 -31.6504
16.093 5.4000001 -31.760201
16.757999 5.4000001 -31.7458
17.423 5.4000001 -31.7026
18.087999 5.4000001 -31.895201
18.753 5.4000001 -31.816
19.417999 5.4000001 -31.871799
20.083 5.4000001 -31.8592
20.747999 5.4000001 -31.634199
21.413 5.4000001 -32.1418
22.077999 5.4000001 -32.1022
22.743 5.4000001 -32.311001
23.408001 5.4000001 -32.445999
24.073 5.4000001 -32.426201
24.738001 5.4000001 -32.494598
25.403 5.4000001 -33.059799
26.068001 5.4000001 -33.250599
26.733 5.4000001 -33.405399
27.398001 5.4000001 -33.171398
28.063 5.4000001 -33.876999
28.728001 5.4000001 -34.3018
29.393 5.4000001 -34.370201
30.058001 5.4000001 -34.474602
30.723 5.4000001 -34.9048
31.388 5.4000001 -35.374599
32.053001 5.4000001 -35.135201
32.717999 5.4000001 -35.632
33.382999 5.4000001 -35.738201
34.048 5.4000001 -35.929001
34.713001 5.4000001 -36.289001
35.377998 5.4000001 -36.868599
36.042999 5.4000001 -37
36.708 5.4000001 -37.424801
37.373001 5.4000001 -38.1754
38.037998 5.4000001 -38.4454
38.702999 5.4000001 -38.708199
39.368 5.4000001 -39.318401
40.033001 5.4000001 -39.622601
40.698002 5.4000001 -40.211201
41.362999 5.4000001 -40.774601
42.028 5.4000001 -41.6656
42.693001 5.4000001 -41.912201
43.358002 5.4000001 -42.398201
44.022999 5.4000001 -42.993999
44.688 5.4000001 -43.858002
45.353001 5.4000001 -44.590599
46.018002 5.4000001 -45.4384
46.682999 5.4000001 -46.392399
47.348 5.4000001 -47.035
48.013 5.4000001 -47.690201
48.678001 5.4000001 -48.4552
49.342999 5.4000001 -48.732399
50.007999 5.4000001 -48.948399
50.673 5.4000001 -49.050999
51.338001 5.4000001 -48.933998
52.002998 5.4000001 -48.7756
52.667999 5.4000001 -48.943001
53.333 5.4000001 -49.326401
53.998001 5.4000001 -49.672001
54.662998 5.4000001 -50.221001
55.327999 5.4000001 -50.681801
55.993 5.4000001 -51.302799
56.658001 5.4000001 -51.873402
57.323002 5.4000001 -52.523201
57.987999 5.4000001 -52.908401
58.653 5.4000001 -53.111801
59.318001 5.4000001 -53.7994
59.983002 5.4000001 -54.278198
60.647999 5.4000001 -54.532001
61.313 5.4000001 -55.169201
61.978001 5.4000001 -55.518398
62.643002 5.4000001 -55.835201
63.307999 5.4000001 -56.364399
63.973 5.4000001 -56.978199
64.638 5.4000001 -57.638802
65.303001 5.4000001 -58.135601
65.968002 5.4000001 -58.7332
66.633003 5.4000001 -59.085999
67.297997 5.4000001 -59.9842
67.962997 5.4000001 -60.731201
68.627998 5.4000001 -61.350399
69.292999 5.4000001 -62.169399
69.958 5.4000001 -63.028
70.623001 5.4000001 -inf
71.288002 5.4000001 -inf
71.953003 5.4000001 -inf
72.617996 5.4000001 -inf
73.282997 5.4000001 -inf
73.947998 5.4000001 -inf
74.612999 5.4000001 -inf
75.278 5.4000001 -inf
75.943001 5.4000001 -inf
76.608002 5.4000001 -inf
77.273003 5.4000001 -inf
77.938004 5.4000001 -inf
78.602997 5.4000001 -inf
-58.387001 6.1199999 -inf
-57.722 6.1199999 -inf
-57.056999 6.1199999 -inf
-56.391998 6.1199999 -inf
-55.727001 6.1199999 -inf
-55.062 6.1199999 -inf
-54.396999 6.1199999 -inf
-53.731998 6.1199999 -inf
-53.067001 6.1199999 -inf
-52.402 6.1199999 -inf
-51.737 6.1199999 -inf
-51.071999 6.1199999 -inf
-50.407001 6.1199999 -51.333401
-49.742001 6.1199999 -50.267799
-49.077 6.1199999 -49.140999
-48.411999 6.1199999 -48.0718
-47.747002 6.1199999 -47.612801
-47.082001 6.1199999 -46.6786
-46.417 6.1199999 -46.354599
-45.751999 6.1199999 -45.695801
-45.087002 6.1199999 -45.609402
-44.422001 6.1199999 -45.209801
-43.757 6.1199999 -45.0154
-43.091999 6.1199999 -45.3214
-42.426998 6.1199999 -45.690399
-41.762001 6.1199999 -45.969398
-41.097 6.1199999 -46.617401
-40.431999 6.1199999 -47.016998
-39.766998 6.1199999 -47.155602
-39.102001 6.1199999 -47.119598
-38.437 6.1199999 -49.229198
-37.771999 6.1199999 -49.1824
-37.106998 6.1199999 -49.290401
-36.442001 6.1199999 -49.896999
-35.777 6.1199999 -50.352402
-35.112 6.1199999 -49.9888
-34.446999 6.1199999 -50.464001
-33.782001 6.1199999 -50.757401
-33.117001 6.1199999 -50.978802
-32.452 6.1199999 -51.383801
-31.787001 6.1199999 -51.7654
-31.122 6.1199999 -52.742802
-30.457001 6.1199999 -52.881401
-29.792 6.1199999 -52.575401
-29.127001 6.1199999 -52.7122
-28.462 6.1199999 -52.1092
-27.797001 6.1199999 -51.583599
-27.132 6.1199999 -51.081402
-26.466999 6.1199999 -50.7934
-25.802 6.1199999 -50.159801
-25.136999 6.1199999 -49.583801
-24.472 6.1199999 -49.069
-23.806999 6.1199999 -48.383202
-23.142 6.1199999 -47.447201
-22.476999 6.1199999 -46.615601
-21.812 6.1199999 -45.9748
-21.146999 6.1199999 -45.5914
-20.482 6.1199999 -45.036999
-19.816999 6.1199999 -44.372799
-19.152 6.1199999 -44.1064
-18.487 6.1199999 -43.8004
-17.822001 6.1199999 -43.242401
-17.157 6.1199999 -42.403599
-16.492001 6.1199999 -41.953602
-15.827 6.1199999 -41.507198
-15.162 6.1199999 -40.8358
-14.497 6.1199999 -40.456001
-13.832 6.1199999 -40.105
-13.167 6.1199999 -39.6334
-12.502 6.1199999 -38.868401
-11.837 6.1199999 -38.548
-11.172 6.1199999 -38.211399
-10.507 6.1199999 -37.687599
-9.842 6.1199999 -37.505798
-9.177 6.1199999 -37.271801
-8.5120001 6.1199999 -36.967602
-7.8470001 6.1199999 -36.5284
-7.1820002 6.1199999 -35.9146
-6.5170002 6.1199999 -35.167599
-5.8520002 6.1199999 -34.8652
-5.1869998 6.1199999 -34.201
-4.5219998 6.1199999 -33.925598
-3.8570001 6.1199999 -33.616001
-3.1919999 6.1199999 -33.2164
-2.527 6.1199999 -32.771801
-1.862 6.1199999 -32.501801
-1.197 6.1199999 -32.147202
-0.53200001 6.1199999 -32.035599
0.133 6.1199999 -31.6936
0.79799998 6.1199999 -31.243601
1.4630001 6.1199999 -31.15
2.128 6.1199999 -31.052799
2.793 6.1199999 -30.707199
3.4579999 6.1199999 -30.624399
4.1230001 6.1199999 -30.457001
4.7880001 6.1199999 -30.3706
5.4530001 6.1199999 -30.124001
6.118 6.1199999 -29.9098
6.783 6.1199999 -29.9116
7.448 6.1199999 -29.938601
8.1129999 6.1199999 -29.9746
8.7779999 6.1199999 -30.0448
9.4429998 6.1199999 -30.354401
10.108 6.1199999 -30.491199
10.773 6.1199999 -30.3958
11.438 6.1199999 -30.802601
12.103 6.1199999 -30.8512
12.768 6.1199999 -30.6658
13.433 6.1199999 -30.8962
14.098 6.1199999 -30.957399
14.763 6.1199999 -31.312
15.428 6.1199999 -31.614401
16.093 6.1199999 -31.747601
16.757999 6.1199999 -31.834
17.423 6.1199999 -31.7512
18.087999 6.1199999 -31.6108
18.753 6.1199999 -31.844801
19.417999 6.1199999 -31.907801
20.083 6.1199999 -31.947399
20.747999 6.1199999 -31.875401
21.413 6.1199999 -31.895201
22.077999 6.1199999 -31.940201
22.743 6.1199999 -32.221001
23.408001 6.1199999 -32.352402
24.073 6.1199999 -32.2966
24.738001 6.1199999 -32.737598
25.403 6.1199999 -32.9104
26.068001 6.1199999 -33.106602
26.733 6.1199999 -33.171398
27.398001 6.1199999 -33.1534
28.063 6.1199999 -33.543999
28.728001 6.1199999 -33.912998
29.393 6.1199999 -34.157799
30.058001 6.1199999 -34.422401
30.723 6.1199999 -34.678001
31.388 6.1199999 -35.012798
32.053001 6.1199999 -35.1964
32.717999 6.1199999 -35.435799
33.382999 6.1199999 -35.916401
34.048 6.1199999 -35.910999
34.713001 6.1199999 -36.481602
35.377998 6.1199999 -36.991001
36.042999 6.1199999 -36.784
36.708 6.1199999 -37.131401
37.373001 6.1199999 -38.0998
38.037998 6.1199999 -38.3032
38.702999 6.1199999 -38.630798
39.368 6.1199999 -39.158199
40.033001 6.1199999 -39.610001
40.698002 6.1199999 -40.191399
41.362999 6.1199999 -40.853802
42.028 6.1199999 -41.5774
42.693001 6.1199999 -41.698002
43.358002 6.1199999 -42.083199
44.022999 6.1199999 -42.6502
44.688 6.1199999 -43.602402
45.353001 6.1199999 -44.354801
46.018002 6.1199999 -45.1828
46.682999 6.1199999 -46.028801
47.348 6.1199999 -46.682201
48.013 6.1199999 -47.323002
48.678001 6.1199999 -47.917
49.342999 6.1199999 -48.395802
50.007999 6.1199999 -48.43
50.673 6.1199999 -48.797199
51.338001 6.1199999 -48.8242
52.002998 6.1199999 -48.874599
52.667999 6.1199999 -48.611801
53.333 6.1199999 -49.076199
53.998001 6.1199999 -49.483002
54.662998 6.1199999 -49.868198
55.327999 6.1199999 -50.508999
55.993 6.1199999 -51.183998
56.658001 6.1199999 -51.950802
57.323002 6.1199999 -52.605999
57.987999 6.1199999 -53.056
58.653 6.1199999 -53.1586
59.318001 6.1199999 -53.615799
59.983002 6.1199999 -54.074799
60.647999 6.1199999 -54.368198
61.313 6.1199999 -54.971199
61.978001 6.1199999 -55.457199
62.643002 6.1199999 -55.878399
63.307999 6.1199999 -56.373402
63.973 6.1199999 -56.938599
64.638 6.1199999 -57.622601
65.303001 6.1199999 -58.2868
65.968002 6.1199999 -59.085999
66.633003 6.1199999 -59.408199
67.297997 6.1199999 -60.043598
67.962997 6.1199999 -60.799599
68.627998 6.1199999 -61.512402
69.292999 6.1199999 -62.063202
69.958 6.1199999 -62.871399
70.623001 6.1199999 -64.336601
71.288002 6.1199999 -inf
71.953003 6.1199999 -inf
72.617996 6.1199999 -inf
73.282997 6.1199999 -inf
73.947998 6.1199999 -inf
74.612999 6.1199999 -inf
75.278 6.1199999 -inf
75.943001 6.1199999 -inf
76.608002 6.1199999 -inf
77.273003 6.1199999 -inf
77.938004 6.1199999 -inf
78.602997 6.1199999 -inf
-58.387001 6.8400002 -inf
-57.722 6.8400002 -inf
-57.056999 6.8400002 -inf
-56.391998 6.8400002 -inf
-55.727001 6.8400002 -inf
-55.062 6.8400002 -inf
-54.396999 6.8400002 -inf
-53.731998 6.8400002 -inf
-53.067001 6.8400002 -inf
-52.402 6.8400002 -inf
-51.737 6.8400002 -inf
-51.071999 6.8400002 -inf
-50.407001 6.8400002 -51.832001
-49.742001 6.8400002 -50.741199
-49.077 6.8400002 -49.4002
-48.411999 6.8400002 -48.023201
-47.747002 6.8400002 -47.166401
-47.082001 6.8400002 -46.736198
-46.417 6.8400002 -46.198002
-45.751999 6.8400002 -45.715599
-45.087002 6.8400002 -45.379002
-44.422001 6.8400002 -45.089199
-43.757 6.8400002 -44.954201
-43.091999 6.8400002 -44.932598
-42.426998 6.8400002 -45.389801
-41.762001 6.8400002 -45.9604
-41.097 6.8400002 -46.532799
-40.431999 6.8400002 -46.556198
-39.766998 6.8400002 -47.305
-39.102001 6.8400002 -47.9944
-38.437 6.8400002 -48.653198
-37.771999 6.8400002 -48.815201
-37.106998 6.8400002 -49.187801
-36.442001 6.8400002 -49.479401
-35.777 6.8400002 -49.555
-35.112 6.8400002 -50.048199
-34.446999 6.8400002 -50.444199
-33.782001 6.8400002 -50.6908
-33.117001 6.8400002 -51.250599
-32.452 6.8400002 -51.603401
-31.787001 6.8400002 -52.121799
-31.122 6.8400002 -52.460201
-30.457001 6.8400002 -52.242401
-29.792 6.8400002 -52.6492
-29.127001 6.8400002 -52.483601
-28.462 6.8400002 -52.488998
-27.797001 6.8400002 -51.743801
-27.132 6.8400002 -51.137199
-26.466999 6.8400002 -50.285801
-25.802 6.8400002 -49.736801
-25.136999 6.8400002 -49.101398
-24.472 6.8400002 -48.460602
-23.806999 6.8400002 -48.217602
-23.142 6.8400002 -47.612801
-22.476999 6.8400002 -46.783001
-21.812 6.8400002 -45.937
-21.146999 6.8400002 -45.733601
-20.482 6.8400002 -45.568001
-19.816999 6.8400002 -44.777802
-19.152 6.8400002 -44.115398
-18.487 6.8400002 -43.485401
-17.822001 6.8400002 -42.871601
-17.157 6.8400002 -42.448601
-16.492001 6.8400002 -41.931999
-15.827 6.8400002 -41.276798
-15.162 6.8400002 -40.9006
-14.497 6.8400002 -40.616199
-13.832 6.8400002 -40.096001
-13.167 6.8400002 -39.579399
-12.502 6.8400002 -38.709999
-11.837 6.8400002 -38.499401
-11.172 6.8400002 -37.975601
-10.507 6.8400002 -37.608398
-9.842 6.8400002 -37.559799
-9.177 6.8400002 -37.392399
-8.5120001 6.8400002 -36.742599
-7.8470001 6.8400002 -36.298
-7.1820002 6.8400002 -35.8606
-6.5170002 6.8400002 -34.903
-5.8520002 6.8400002 -34.616798
-5.1869998 6.8400002 -33.950802
-4.5219998 6.8400002 -33.668201
-3.8570001 6.8400002 -33.319
-3.1919999 6.8400002 -32.966202
-2.527 6.8400002 -32.566601
-1.862 6.8400002 -32.303799
-1.197 6.8400002 -32.008598
-0.53200001 6.8400002 -31.769199
0.133 6.8400002 -31.396601
0.79799998 6.8400002 -31.281401
1.4630001 6.8400002 -31.0762
2.128 6.8400002 -31.0312
2.793 6.8400002 -30.687401
3.4579999 6.8400002 -30.572201
4.1230001 6.8400002 -30.3706
4.7880001 6.8400002 -30.251801
5.4530001 6.8400002 -30.028601
6.118 6.8400002 -29.8162
6.783 6.8400002 -29.8612
7.448 6.8400002 -29.962
8.1129999 6.8400002 -30.035801
8.7779999 6.8400002 -30.1672
9.4429998 6.8400002 -30.0898
10.108 6.8400002 -30.356199
10.773 6.8400002 -30.4426
11.438 6.8400002 -30.5452
12.103 6.8400002 -30.6082
12.768 6.8400002 -30.5758
13.433 6.8400002 -30.8062
14.098 6.8400002 -31.2652
14.763 6.8400002 -31.373199
15.428 6.8400002 -31.7764
16.093 6.8400002 -31.920401
16.757999 6.8400002 -32.0266
17.423 6.8400002 -32.035599
18.087999 6.8400002 -31.9186
18.753 6.8400002 -32.042801
19.417999 6.8400002 -31.9438
20.083 6.8400002 -32.049999
20.747999 6.8400002 -31.9168
21.413 6.8400002 -31.9006
22.077999 6.8400002 -31.875401
22.743 6.8400002 -31.837601
23.408001 6.8400002 -32.420799
24.073 6.8400002 -32.481998
24.738001 6.8400002 -32.7052
25.403 6.8400002 -32.797001
26.068001 6.8400002 -32.888802
26.733 6.8400002 -33.292
27.398001 6.8400002 -33.045399
28.063 6.8400002 -33.2686
28.728001 6.8400002 -33.367599
29.393 6.8400002 -34.0858
30.058001 6.8400002 -34.503399
30.723 6.8400002 -34.589802
31.388 6.8400002 -34.903
32.053001 6.8400002 -34.938999
32.717999 6.8400002 -35.129799
33.382999 6.8400002 -35.6716
34.048 6.8400002 -36.091
34.713001 6.8400002 -36.262001
35.377998 6.8400002 -36.612999
36.042999 6.8400002 -37.044998
36.708 6.8400002 -37.223202
37.373001 6.8400002 -37.6894
38.037998 6.8400002 -37.953999
38.702999 6.8400002 -38.594799
39.368 6.8400002 -38.951199
40.033001 6.8400002 -39.462399
40.698002 6.8400002 -40.2346
41.362999 6.8400002 -40.9492
42.028 6.8400002 -41.292999
42.693001 6.8400002 -41.260601
43.358002 6.8400002 -41.732201
44.022999 6.8400002 -42.526001
44.688 6.8400002 -43.310799
45.353001 6.8400002 -44.056
46.018002 6.8400002 -45.0406
46.682999 6.8400002 -45.6688
47.348 6.8400002 -46.253799
48.013 6.8400002 -47.089001
48.678001 6.8400002 -47.619999
49.342999 6.8400002 -47.944
50.007999 6.8400002 -48.25
50.673 6.8400002 -48.494801
51.338001 6.8400002 -48.604599
52.002998 6.8400002 -48.561401
52.667999 6.8400002 -48.484001
53.333 6.8400002 -48.9394
53.998001 6.8400002 -49.176998
54.662998 6.8400002 -49.704399
55.327999 6.8400002 -50.458599
55.993 6.8400002 -51.353199
56.658001 6.8400002 -52.0588
57.323002 6.8400002 -52.541199
57.987999 6.8400002 -52.921001
58.653 6.8400002 -53.2342
59.318001 6.8400002 -53.741798
59.983002 6.8400002 -53.992001
60.647999 6.8400002 -54.405998
61.313 6.8400002 -54.908199
61.978001 6.8400002 -55.5886
62.643002 6.8400002 -56.1502
63.307999 6.8400002 -56.4076
63.973 6.8400002 -56.925999
64.638 6.8400002 -57.797199
65.303001 6.8400002 -58.432598
65.968002 6.8400002 -59.120201
66.633003 6.8400002 -59.5378
67.297997 6.8400002 -60.1408
67.962997 6.8400002 -60.993999
68.627998 6.8400002 -61.5574
69.292999 6.8400002 -62.140598
69.958 6.8400002 -62.743599
70.623001 6.8400002 -63.801998
71.288002 6.8400002 -inf
71.953003 6.8400002 -inf
72.617996 6.8400002 -inf
73.282997 6.8400002 -inf
73.947998 6.8400002 -inf
74.612999 6.8400002 -inf
75.278 6.8400002 -inf
75.943001 6.8400002 -inf
76.608002 6.8400002 -inf
77.273003 6.8400002 -inf
77.938004 6.8400002 -inf
78.602997 6.8400002 -inf
-58.387001 7.5599999 -inf
-57.722 7.5599999 -inf
-57.056999 7.5599999 -inf
-56.391998 7.5599999 -inf
-55.727001 7.5599999 -inf
-55.062 7.5599999 -inf
-54.396999 7.5599999 -inf
-53.731998 7.5599999 -inf
-53.067001 7.5599999 -inf
-52.402 7.5599999 -inf
-51.737 7.5599999 -inf
-51.071999 7.5599999 -inf
-50.407001 7.5599999 -51.887798
-49.742001 7.5599999 -50.9464
-49.077 7.5599999 -49.5406
-48.411999 7.5599999 -48.165401
-47.747002 7.5599999 -47.155602
-47.082001 7.5599999 -46.725399
-46.417 7.5599999 -46.068401
-45.751999 7.5599999 -45.584202
-45.087002 7.5599999 -45.469002
-44.422001 7.5599999 -45.4888
-43.757 7.5599999 -44.9632
-43.091999 7.5599999 -45.0424
-42.426998 7.5599999 -45.269199
-41.762001 7.5599999 -45.659801
-41.097 7.5599999 -46.6534
-40.431999 7.5599999 -46.824402
-39.766998 7.5599999 -47.179001
-39.102001 7.5599999 -47.566002
-38.437 7.5599999 -48.115002
-37.771999 7.5599999 -48.151001
-37.106998 7.5599999 -48.280602
-36.442001 7.5599999 -48.4552
-35.777 7.5599999 -49.200401
-35.112 7.5599999 -49.803398
-34.446999 7.5599999 -50.138199
-33.782001 7.5599999 -50.557598
-33.117001 7.5599999 -50.904999
-32.452 7.5599999 -51.2146
-31.787001 7.5599999 -51.704201
-31.122 7.5599999 -51.9058
-30.457001 7.5599999 -52.476398
-29.792 7.5599999 -52.332401
-29.127001 7.5599999 -52.343201
-28.462 7.5599999 -52.0588
-27.797001 7.5599999 -51.410801
-27.132 7.5599999 -50.950001
-26.466999 7.5599999 -50.338001
-25.802 7.5599999 -49.607201
-25.136999 7.5599999 -48.8368
-24.472 7.5599999 -48.4786
-23.806999 7.5599999 -48.127602
-23.142 7.5599999 -47.458
-22.476999 7.5599999 -46.772202
-21.812 7.5599999 -46.286201
-21.146999 7.5599999 -45.472599
-20.482 7.5599999 -45.1306
-19.816999 7.5599999 -44.333199
-19.152 7.5599999 -43.723
-18.487 7.5599999 -43.237
-17.822001 7.5599999 -42.914799
-17.157 7.5599999 -42.261398
-16.492001 7.5599999 -41.638599
-15.827 7.5599999 -41.442402
-15.162 7.5599999 -40.641399
-14.497 7.5599999 -40.697201
-13.832 7.5599999 -39.584801
-13.167 7.5599999 -39.277
-12.502 7.5599999 -38.4706
-11.837 7.5599999 -38.016998
-11.172 7.5599999 -37.8064
-10.507 7.5599999 -37.6516
-9.842 7.5599999 -37.261002
-9.177 7.5599999 -37.291599
-8.5120001 7.5599999 -36.690399
-7.8470001 7.5599999 -36.316002
-7.1820002 7.5599999 -35.853401
-6.5170002 7.5599999 -34.741001
-5.8520002 7.5599999 -34.478199
-5.1869998 7.5599999 -33.538601
-4.5219998 7.5599999 -33.542198
-3.8570001 7.5599999 -33.2812
-3.1919999 7.5599999 -32.723202
-2.527 7.5599999 -32.370399
-1.862 7.5599999 -32.228199
-1.197 7.5599999 -31.969
-0.53200001 7.5599999 -31.6882
0.133 7.5599999 -31.5532
0.79799998 7.5599999 -31.2346
1.4630001 7.5599999 -31.1122
2.128 7.5599999 -30.932199
2.793 7.5599999 -30.687401
3.4579999 7.5599999 -30.491199
4.1230001 7.5599999 -30.318399
4.7880001 7.5599999 -30.125799
5.4530001 7.5599999 -29.8738
6.118 7.5599999 -29.753201
6.783 7.5599999 -29.6308
7.448 7.5599999 -29.665001
8.1129999 7.5599999 -29.844999
8.7779999 7.5599999 -30.201401
9.4429998 7.5599999 -29.850401
10.108 7.5599999 -30.2356
10.773 7.5599999 -30.4534
11.438 7.5599999 -30.266199
12.103 7.5599999 -30.4534
12.768 7.5599999 -30.494801
13.433 7.5599999 -30.7612
14.098 7.5599999 -31.108601
14.763 7.5599999 -31.198601
15.428 7.5599999 -31.591
16.093 7.5599999 -31.922199
16.757999 7.5599999 -32.075199
17.423 7.5599999 -32.058998
18.087999 7.5599999 -31.933001
18.753 7.5599999 -31.877199
19.417999 7.5599999 -31.5352
20.083 7.5599999 -31.6702
20.747999 7.5599999 -31.416401
21.413 7.5599999 -31.5352
22.077999 7.5599999 -31.5424
22.743 7.5599999 -31.6576
23.408001 7.5599999 -31.9942
24.073 7.5599999 -32.0518
24.738001 7.5599999 -32.1562
25.403 7.5599999 -32.489201
26.068001 7.5599999 -32.568401
26.733 7.5599999 -33.221802
27.398001 7.5599999 -33.212799
28.063 7.5599999 -33.277599
28.728001 7.5599999 -33.531399
29.393 7.5599999 -33.671799
30.058001 7.5599999 -34.192001
30.723 7.5599999 -34.577202
31.388 7.5599999 -34.888599
32.053001 7.5599999 -34.8148
32.717999 7.5599999 -35.241402
33.382999 7.5599999 -35.360199
34.048 7.5599999 -35.898399
34.713001 7.5599999 -36.4636
35.377998 7.5599999 -36.424
36.042999 7.5599999 -36.6796
36.708 7.5599999 -36.918999
37.373001 7.5599999 -37.414001
38.037998 7.5599999 -37.824402
38.702999 7.5599999 -38.4202
39.368 7.5599999 -38.859402
40.033001 7.5599999 -39.394001
40.698002 7.5599999 -40.132
41.362999 7.5599999 -40.765598
42.028 7.5599999 -40.8988
42.693001 7.5599999 -41.109402
43.358002 7.5599999 -41.5504
44.022999 7.5599999 -42.412601
44.688 7.5599999 -43.0732
45.353001 7.5599999 -43.8256
46.018002 7.5599999 -44.635601
46.682999 7.5599999 -45.263802
47.348 7.5599999 -45.940601
48.013 7.5599999 -46.784801
48.678001 7.5599999 -47.4832
49.342999 7.5599999 -47.825199
50.007999 7.5599999 -48.075401
50.673 7.5599999 -48.384998
51.338001 7.5599999 -48.336399
52.002998 7.5599999 -48.309399
52.667999 7.5599999 -48.372398
53.333 7.5599999 -48.656799
53.998001 7.5599999 -48.9034
54.662998 7.5599999 -49.819599
55.327999 7.5599999 -50.339802
55.993 7.5599999 -51.0868
56.658001 7.5599999 -51.797798
57.323002 7.5599999 -52.343201
57.987999 7.5599999 -52.8922
58.653 7.5599999 -53.200001
59.318001 7.5599999 -53.7742
59.983002 7.5599999 -54.2584
60.647999 7.5599999 -54.767799
61.313 7.5599999 -55.266399
61.978001 7.5599999 -55.883801
62.643002 7.5599999 -56.3932
63.307999 7.5599999 -56.9062
63.973 7.5599999 -57.367001
64.638 7.5599999 -58.045601
65.303001 7.5599999 -58.632401
65.968002 7.5599999 -59.260601
66.633003 7.5599999 -59.674599
67.297997 7.5599999 -60.2542
67.962997 7.5599999 -61.145199
68.627998 7.5599999 -61.575401
69.292999 7.5599999 -62.358398
69.958 7.5599999 -62.880402
70.623001 7.5599999 -63.742599
71.288002 7.5599999 -inf
71.953003 7.5599999 -inf
72.617996 7.5599999 -inf
73.282997 7.5599999 -inf
73.947998 7.5599999 -inf
74.612999 7.5599999 -inf
75.278 7.5599999 -inf
75.943001 7.5599999 -inf
76.608002 7.5599999 -inf
77.273003 7.5599999 -inf
77.938004 7.5599999 -inf
78.602997 7.5599999 -inf
-58.387001 8.2799997 -inf
-57.722 8.2799997 -inf
-57.056999 8.2799997 -inf
-56.391998 8.2799997 -inf
-55.727001 8.2799997 -inf
-55.062 8.2799997 -inf
-54.396999 8.2799997 -inf
-53.731998 8.2799997 -inf
-53.067001 8.2799997 -inf
-52.402 8.2799997 -inf
-51.737 8.2799997 -inf
-51.071999 8.2799997 -inf
-50.407001 8.2799997 -52.2244
-49.742001 8.2799997 -50.906799
-49.077 8.2799997 -49.6054
-48.411999 8.2799997 -48.511002
-47.747002 8.2799997 -47.949402
-47.082001 8.2799997 -46.674999
-46.417 8.2799997 -46.0648
-45.751999 8.2799997 -45.686798
-45.087002 8.2799997 -45.424
-44.422001 8.2799997 -45.481602
-43.757 8.2799997 -45.0406
-43.091999 8.2799997 -44.740002
-42.426998 8.2799997 -45.3358
-41.762001 8.2799997 -45.8092
-41.097 8.2799997 -46.153
-40.431999 8.2799997 -46.737999
-39.766998 8.2799997 -47.126801
-39.102001 8.2799997 -47.566002
-38.437 8.2799997 -47.7658
-37.771999 8.2799997 -48.093399
-37.106998 8.2799997 -48.356201
-36.442001 8.2799997 -48.384998
-35.777 8.2799997 -49.0942
-35.112 8.2799997 -49.2994
-34.446999 8.2799997 -49.789001
-33.782001 8.2799997 -50.159801
-33.117001 8.2799997 -50.584599
-32.452 8.2799997 -50.854599
-31.787001 8.2799997 -51.3046
-31.122 8.2799997 -51.990398
-30.457001 8.2799997 -51.833801
-29.792 8.2799997 -52.425999
-29.127001 8.2799997 -52.1758
-28.462 8.2799997 -51.859001
-27.797001 8.2799997 -51.491798
-27.132 8.2799997 -50.719601
-26.466999 8.2799997 -50.096802
-25.802 8.2799997 -49.756599
-25.136999 8.2799997 -49.121201
-24.472 8.2799997 -48.336399
-23.806999 8.2799997 -47.889999
-23.142 8.2799997 -47.220402
-22.476999 8.2799997 -46.568802
-21.812 8.2799997 -46.266399
-21.146999 8.2799997 -45.416801
-20.482 8.2799997 -45.063999
-19.816999 8.2799997 -44.5924
-19.152 8.2799997 -43.4944
-18.487 8.2799997 -42.927399
-17.822001 8.2799997 -42.742001
-17.157 8.2799997 -42.225399
-16.492001 8.2799997 -41.5774
-15.827 8.2799997 -41.134602
-15.162 8.2799997 -40.4506
-14.497 8.2799997 -40.340801
-13.832 8.2799997 -39.629799
-13.167 8.2799997 -38.992599
-12.502 8.2799997 -38.375198
-11.837 8.2799997 -37.928799
-11.172 8.2799997 -37.662399
-10.507 8.2799997 -37.671398
-9.842 8.2799997 -37.340199
-9.177 8.2799997 -37.655201
-8.5120001 8.2799997 -36.956799
-7.8470001 8.2799997 -36.3214
-7.1820002 8.2799997 -35.560001
-6.5170002 8.2799997 -34.640202
-5.8520002 8.2799997 -34.400799
-5.1869998 8.2799997 -33.695202
-4.5219998 8.2799997 -33.529598
-3.8570001 8.2799997 -33.167801
-3.1919999 8.2799997 -32.714199
-2.527 8.2799997 -32.1814
-1.862 8.2799997 -32.093201
-1.197 8.2799997 -31.871799
-0.53200001 8.2799997 -31.6738
0.133 8.2799997 -31.481199
0.79799998 8.2799997 -31.191401
1.4630001 8.2799997 -31.160801
2.128 8.2799997 -37.777599
2.793 8.2799997 -37.777599
3.4579999 8.2799997 -30.240999
4.1230001 8.2799997 -30.100599
4.7880001 8.2799997 -30.0142
5.4530001 8.2799997 -29.656
6.118 8.2799997 -29.5858
6.783 8.2799997 -29.403999
7.448 8.2799997 -29.3734
8.1129999 8.2799997 -29.6362
8.7779999 8.2799997 -29.945801
9.4429998 8.2799997 -29.9422
10.108 8.2799997 -30.2122
10.773 8.2799997 -30.5308
11.438 8.2799997 -30.375999
12.103 8.2799997 -30.6532
12.768 8.2799997 -30.7234
13.433 8.2799997 -30.9196
14.098 8.2799997 -30.8836
14.763 8.2799997 -30.962799
15.428 8.2799997 -31.267
16.093 8.2799997 -31.571199
16.757999 8.2799997 -31.882601
17.423 8.2799997 -31.8736
18.087999 8.2799997 -31.8934
18.753 8.2799997 -31.4704
19.417999 8.2799997 -31.024
20.083 8.2799997 -31.132
20.747999 8.2799997 -31.114
21.413 8.2799997 -31.0762
22.077999 8.2799997 -31.024
22.743 8.2799997 -31.0186
23.408001 8.2799997 -31.285
24.073 8.2799997 -31.4848
24.738001 8.2799997 -31.951
25.403 8.2799997 -32.390202
26.068001 8.2799997 -33.014801
26.733 8.2799997 -33.067001
27.398001 8.2799997 -33.167801
28.063 8.2799997 -33.416199
28.728001 8.2799997 -33.417999
29.393 8.2799997 -33.749199
30.058001 8.2799997 -34.174
30.723 8.2799997 -34.372002
31.388 8.2799997 -34.834599
32.053001 8.2799997 -35.232399
32.717999 8.2799997 -35.1478
33.382999 8.2799997 -35.2864
34.048 8.2799997 -35.722
34.713001 8.2799997 -36.022598
35.377998 8.2799997 -36.146801
36.042999 8.2799997 -36.737202
36.708 8.2799997 -37.032398
37.373001 8.2799997 -37.674999
38.037998 8.2799997 -37.858601
38.702999 8.2799997 -38.423801
39.368 8.2799997 -38.692001
40.033001 8.2799997 -39.354401
40.698002 8.2799997 -39.998798
41.362999 8.2799997 -40.560398
42.028 8.2799997 -40.5532
42.693001 8.2799997 -40.915001
43.358002 8.2799997 -41.4604
44.022999 8.2799997 -42.270401
44.688 8.2799997 -42.810398
45.353001 8.2799997 -43.573601
46.018002 8.2799997 -44.219799
46.682999 8.2799997 -44.943401
47.348 8.2799997 -45.685001
48.013 8.2799997 -46.513
48.678001 8.2799997 -46.945
49.342999 8.2799997 -47.297798
50.007999 8.2799997 -47.864799
50.673 8.2799997 -48.192402
51.338001 8.2799997 -48.097
52.002998 8.2799997 -48.010601
52.667999 8.2799997 -48.244598
53.333 8.2799997 -48.591999
53.998001 8.2799997 -49.2616
54.662998 8.2799997 -49.722401
55.327999 8.2799997 -50.165199
55.993 8.2799997 -51.092201
56.658001 8.2799997 -51.711399
57.323002 8.2799997 -52.2514
57.987999 8.2799997 -52.694199
58.653 8.2799997 -53.064999
59.318001 8.2799997 -53.648201
59.983002 8.2799997 -54.1576
60.647999 8.2799997 -54.7066
61.313 8.2799997 -55.620998
61.978001 8.2799997 -56.4202
62.643002 8.2799997 -56.6884
63.307999 8.2799997 -56.925999
63.973 8.2799997 -57.311199
64.638 8.2799997 -58.0942
65.303001 8.2799997 -58.689999
65.968002 8.2799997 -59.464001
66.633003 8.2799997 -59.941002
67.297997 8.2799997 -60.603401
67.962997 8.2799997 -61.102001
68.627998 8.2799997 -61.807598
69.292999 8.2799997 -62.4286
69.958 8.2799997 -62.830002
70.623001 8.2799997 -63.622002
71.288002 8.2799997 -inf
71.953003 8.2799997 -inf
72.617996 8.2799997 -inf
73.282997 8.2799997 -inf
73.947998 8.2799997 -inf
74.612999 8.2799997 -inf
75.278 8.2799997 -inf
75.943001 8.2799997 -inf
76.608002 8.2799997 -inf
77.273003 8.2799997 -inf
77.938004 8.2799997 -inf
78.602997 8.2799997 -inf
-58.387001 9 -inf
-57.722 9 -inf
-57.056999 9 -inf
-56.391998 9 -inf
-55.727001 9 -inf
-55.062 9 -inf
-54.396999 9 -inf
-53.731998 9 -inf
-53.067001 9 -inf
-52.402 9 -inf
-51.737 9 -inf
-51.071999 9 -inf
-50.407001 9 -52.874199
-49.742001 9 -51.092201
-49.077 9 -49.5298
-48.411999 9 -48.4678
-47.747002 9 -47.823399
-47.082001 9 -46.619202
-46.417 9 -46.09
-45.751999 9 -45.738998
-45.087002 9 -45.557201
-44.422001 9 -45.494202
-43.757 9 -44.973999
-43.091999 9 -44.898399
-42.426998 9 -46.097198
-41.762001 9 -45.431198
-41.097 9 -46.860401
-40.431999 9 -47.045799
-39.766998 9 -46.743401
-39.102001 9 -47.204201
-38.437 9 -47.4076
-37.771999 9 -47.924198
-37.106998 9 -48.16
-36.442001 9 -48.010601
-35.777 9 -48.6838
-35.112 9 -48.9394
-34.446999 9 -49.634201
-33.782001 9 -49.905998
-33.117001 9 -50.401001
-32.452 9 -50.890598
-31.787001 9 -51.543999
-31.122 9 -52.080399
-30.457001 9 -51.9454
-29.792 9 -52.179401
-29.127001 9 -51.988602
-28.462 9 -51.781601
-27.797001 9 -51.256001
-27.132 9 -50.571999
-26.466999 9 -50.012199
-25.802 9 -49.628799
-25.136999 9 -48.844002
-24.472 9 -48.125801
-23.806999 9 -47.627201
-23.142 9 -46.948601
-22.476999 9 -46.341999
-21.812 9 -46.0756
-21.146999 9 -45.199001
-20.482 9 -44.9632
-19.816999 9 -44.239601
-19.152 9 -43.474602
-18.487 9 -43.280201
-17.822001 9 -42.4468
-17.157 9 -41.890598
-16.492001 9 -41.278599
-15.827 9 -41.2048
-15.162 9 -40.216599
-14.497 9 -39.923199
-13.832 9 -39.316601
-13.167 9 -38.616402
-12.502 9 -38.000801
-11.837 9 -37.4842
-11.172 9 -37.419399
-10.507 9 -37.160198
-9.842 9 -36.73
-9.177 9 -37.073799
-8.5120001 9 -36.688599
-7.8470001 9 -36.432999
-7.1820002 9 -35.691399
-6.5170002 9 -34.874199
-5.8520002 9 -34.425999
-5.1869998 9 -33.635799
-4.5219998 9 -33.390999
-3.8570001 9 -32.987801
-3.1919999 9 -32.721401
-2.527 9 -32.350601
-1.862 9 -32.105801
-1.197 9 -31.834
-0.53200001 9 -31.628799
0.133 9 -31.4524
0.79799998 9 -31.059999
1.4630001 9 -31.033001
2.128 9 -30.689199
2.793 9 -30.556
3.4579999 9 -30.496599
4.1230001 9 -29.9872
4.7880001 9 -29.8162
5.4530001 9 -29.6362
6.118 9 -29.5264
6.783 9 -29.4202
7.448 9 -29.351801
8.1129999 9 -29.701
8.7779999 9 -29.900801
9.4429998 9 -29.933201
10.108 9 -30.145599
10.773 9 -30.446199
11.438 9 -30.629801
12.103 9 -30.527201
12.768 9 -30.712601
13.433 9 -30.8332
14.098 9 -31.0168
14.763 9 -31.1698
15.428 9 -31.2148
16.093 9 -31.558599
16.757999 9 -31.877199
17.423 9 -31.709801
18.087999 9 -31.6126
18.753 9 -31.257999
19.417999 9 -30.9214
20.083 9 -30.899799
20.747999 9 -30.770201
21.413 9 -31.110399
22.077999 9 -30.7666
22.743 9 -30.8944
23.408001 9 -31.052799
24.073 9 -30.9646
24.738001 9 -31.571199
25.403 9 -31.959999
26.068001 9 -32.2966
26.733 9 -32.532398
27.398001 9 -32.7304
28.063 9 -33.1768
28.728001 9 -33.171398
29.393 9 -33.506199
30.058001 9 -33.922001
30.723 9 -34.1884
31.388 9 -34.6726
32.053001 9 -34.8922
32.717999 9 -34.921001
33.382999 9 -35.205399
34.048 9 -35.610401
34.713001 9 -35.876801
35.377998 9 -36.162998
36.042999 9 -37.003601
36.708 9 -36.823601
37.373001 9 -37.387001
38.037998 9 -37.849602
38.702999 9 -38.3932
39.368 9 -38.729801
40.033001 9 -39.3526
40.698002 9 -40.023998
41.362999 9 -40.074402
42.028 9 -40.499199
42.693001 9 -40.774601
43.358002 9 -41.3344
44.022999 9 -41.964401
44.688 9 -42.515202
45.353001 9 -43.262199
46.018002 9 -44.0308
46.682999 9 -44.633801
47.348 9 -45.469002
48.013 9 -46.2304
48.678001 9 -46.666
49.342999 9 -47.018799
50.007999 9 -47.441799
50.673 9 -47.900799
51.338001 9 -48.037601
52.002998 9 -47.771198
52.667999 9 -47.875599
53.333 9 -48.226601
53.998001 9 -48.968201
54.662998 9 -49.3354
55.327999 9 -50.158001
55.993 9 -50.944599
56.658001 9 -51.860802
57.323002 9 -52.327
57.987999 9 -52.6096
58.653 9 -53.151402
59.318001 9 -53.844398
59.983002 9 -54.2728
60.647999 9 -54.967602
61.313 9 -55.887402
61.978001 9 -56.627201
62.643002 9 -56.612801
63.307999 9 -56.996201
63.973 9 -57.271599
64.638 9 -58.1842
65.303001 9 -58.7206
65.968002 9 -59.404598
66.633003 9 -59.917599
67.297997 9 -60.589001
67.962997 9 -61.0354
68.627998 9 -61.886799
69.292999 9 -62.3512
69.958 9 -62.770599
70.623001 9 -63.422199
71.288002 9 -64.4608
71.953003 9 -inf
72.617996 9 -inf
73.282997 9 -inf
73.947998 9 -inf
74.612999 9 -inf
75.278 9 -inf
75.943001 9 -inf
76.608002 9 -inf
77.273003 9 -inf
77.938004 9 -inf
78.602997 9 -inf
-58.387001 9.7200003 -inf
-57.722 9.7200003 -inf
-57.056999 9.7200003 -inf
-56.391998 9.7200003 -inf
-55.727001 9.7200003 -inf
-55.062 9.7200003 -inf
-54.396999 9.7200003 -inf
-53.731998 9.7200003 -inf
-53.067001 9.7200003 -inf
-52.402 9.7200003 -inf
-51.737 9.7200003 -inf
-51.071999 9.7200003 -inf
-50.407001 9.7200003 -52.957001
-49.742001 9.7200003 -51.443199
-49.077 9.7200003 -49.5172
-48.411999 9.7200003 -48.4156
-47.747002 9.7200003 -47.749599
-47.082001 9.7200003 -46.7794
-46.417 9.7200003 -46.188999
-45.751999 9.7200003 -45.9226
-45.087002 9.7200003 -45.688599
-44.422001 9.7200003 -45.238602
-43.757 9.7200003 -44.876801
-43.091999 9.7200003 -44.979401
-42.426998 9.7200003 -46.309601
-41.762001 9.7200003 -46.019798
-41.097 9.7200003 -45.863201
-40.431999 9.7200003 -45.958599
-39.766998 9.7200003 -46.757801
-39.102001 9.7200003 -47.141201
-38.437 9.7200003 -47.043999
-37.771999 9.7200003 -47.504799
-37.106998 9.7200003 -47.670399
-36.442001 9.7200003 -48.075401
-35.777 9.7200003 -48.2248
-35.112 9.7200003 -48.665798
-34.446999 9.7200003 -49.198601
-33.782001 9.7200003 -49.610802
-33.117001 9.7200003 -50.1544
-32.452 9.7200003 -50.4244
-31.787001 9.7200003 -51.207401
-31.122 9.7200003 -52.2118
-30.457001 9.7200003 -51.788799
-29.792 9.7200003 -51.963402
-29.127001 9.7200003 -51.594398
-28.462 9.7200003 -51.194801
-27.797001 9.7200003 -50.748402
-27.132 9.7200003 -50.0914
-26.466999 9.7200003 -49.551399
-25.802 9.7200003 -49.576599
-25.136999 9.7200003 -48.842201
-24.472 9.7200003 -48.3526
-23.806999 9.7200003 -47.616402
-23.142 9.7200003 -46.9576
-22.476999 9.7200003 -46.597599
-21.812 9.7200003 -45.920799
-21.146999 9.7200003 -45.208
-20.482 9.7200003 -44.565399
-19.816999 9.7200003 -44.603199
-19.152 9.7200003 -43.478199
-18.487 9.7200003 -42.698799
-17.822001 9.7200003 -42.1768
-17.157 9.7200003 -41.681801
-16.492001 9.7200003 -41.390202
-15.827 9.7200003 -40.614399
-15.162 9.7200003 -40.446999
-14.497 9.7200003 -40.063599
-13.832 9.7200003 -39.1474
-13.167 9.7200003 -38.722599
-12.502 9.7200003 -38.2132
-11.837 9.7200003 -37.264599
-11.172 9.7200003 -37.1548
-10.507 9.7200003 -37.1782
-9.842 9.7200003 -37.4842
-9.177 9.7200003 -37.023399
-8.5120001 9.7200003 -36.481602
-7.8470001 9.7200003 -36.2584
-7.1820002 9.7200003 -35.4412
-6.5170002 9.7200003 -34.994801
-5.8520002 9.7200003 -34.264
-5.1869998 9.7200003 -33.832001
-4.5219998 9.7200003 -33.229
-3.8570001 9.7200003 -32.841999
-3.1919999 9.7200003 -32.413601
-2.527 9.7200003 -32.215599
-1.862 9.7200003 -32.010399
-1.197 9.7200003 -31.652201
-0.53200001 9.7200003 -31.583799
0.133 9.7200003 -31.319201
0.79799998 9.7200003 -31.025801
1.4630001 9.7200003 -30.822399
2.128 9.7200003 -30.579399
2.793 9.7200003 -30.4048
3.4579999 9.7200003 -30.2428
4.1230001 9.7200003 -30.097
4.7880001 9.7200003 -29.7658
5.4530001 9.7200003 -29.6308
6.118 9.7200003 -29.519199
6.783 9.7200003 -29.4238
7.448 9.7200003 -29.607401
8.1129999 9.7200003 -29.868401
8.7779999 9.7200003 -30.073601
9.4429998 9.7200003 -30.273399
10.108 9.7200003 -30.232
10.773 9.7200003 -30.3526
11.438 9.7200003 -30.446199
12.103 9.7200003 -30.494801
12.768 9.7200003 -30.629801
13.433 9.7200003 -30.8332
14.098 9.7200003 -31.0816
14.763 9.7200003 -31.268801
15.428 9.7200003 -31.211201
16.093 9.7200003 -31.326401
16.757999 9.7200003 -31.5928
17.423 9.7200003 -31.5298
18.087999 9.7200003 -31.180599
18.753 9.7200003 -31.186001
19.417999 9.7200003 -30.7306
20.083 9.7200003 -31.042
20.747999 9.7200003 -31.3102
21.413 9.7200003 -30.7882
22.077999 9.7200003 -31.2148
22.743 9.7200003 -30.804399
23.408001 9.7200003 -30.386801
24.073 9.7200003 -30.271601
24.738001 9.7200003 -31.211201
25.403 9.7200003 -31.933001
26.068001 9.7200003 -32.2174
26.733 9.7200003 -32.323601
27.398001 9.7200003 -32.696201
28.063 9.7200003 -32.834801
28.728001 9.7200003 -33.1516
29.393 9.7200003 -33.319
30.058001 9.7200003 -33.716801
30.723 9.7200003 -34.1236
31.388 9.7200003 -34.645599
32.053001 9.7200003 -34.768002
32.717999 9.7200003 -35.079399
33.382999 9.7200003 -35.174801
34.048 9.7200003 -35.347599
34.713001 9.7200003 -35.750801
35.377998 9.7200003 -36.058601
36.042999 9.7200003 -36.701199
36.708 9.7200003 -36.920799
37.373001 9.7200003 -37.302399
38.037998 9.7200003 -37.657001
38.702999 9.7200003 -38.179001
39.368 9.7200003 -38.682999
40.033001 9.7200003 -39.381401
40.698002 9.7200003 -39.8008
41.362999 9.7200003 -39.858398
42.028 9.7200003 -40.195
42.693001 9.7200003 -40.446999
43.358002 9.7200003 -41.138199
44.022999 9.7200003 -41.8186
44.688 9.7200003 -42.340599
45.353001 9.7200003 -43.121799
46.018002 9.7200003 -43.823799
46.682999 9.7200003 -44.417801
47.348 9.7200003 -44.9254
48.013 9.7200003 -45.755199
48.678001 9.7200003 -46.129601
49.342999 9.7200003 -46.617401
50.007999 9.7200003 -47.063801
50.673 9.7200003 -47.616402
51.338001 9.7200003 -47.629002
52.002998 9.7200003 -47.668598
52.667999 9.7200003 -47.681198
53.333 9.7200003 -48.010601
53.998001 9.7200003 -48.979
54.662998 9.7200003 -49.8232
55.327999 9.7200003 -50.3578
55.993 9.7200003 -51.013
56.658001 9.7200003 -51.797798
57.323002 9.7200003 -52.283798
57.987999 9.7200003 -52.8022
58.653 9.7200003 -53.131599
59.318001 9.7200003 -53.902
59.983002 9.7200003 -54.569801
60.647999 9.7200003 -55.336601
61.313 9.7200003 -56.076401
61.978001 9.7200003 -56.386002
62.643002 9.7200003 -56.670399
63.307999 9.7200003 -56.996201
63.973 9.7200003 -57.343601
64.638 9.7200003 -58.241798
65.303001 9.7200003 -58.765598
65.968002 9.7200003 -59.4118
66.633003 9.7200003 -59.8438
67.297997 9.7200003 -60.570999
67.962997 9.7200003 -60.9436
68.627998 9.7200003 -61.748199
69.292999 9.7200003 -62.127998
69.958 9.7200003 -62.801201
70.623001 9.7200003 -63.290798
71.288002 9.7200003 -64.482399
71.953003 9.7200003 -65.431
72.617996 9.7200003 -inf
73.282997 9.7200003 -inf
73.947998 9.7200003 -inf
74.612999 9.7200003 -inf
75.278 9.7200003 -inf
75.943001 9.7200003 -inf
76.608002 9.7200003 -inf
77.273003 9.7200003 -inf
77.938004 9.7200003 -inf
78.602997 9.7200003 -inf
-58.387001 10.44 -inf
-57.722 10.44 -inf
-57.056999 10.44 -inf
-56.391998 10.44 -inf
-55.727001 10.44 -inf
-55.062 10.44 -inf
-54.396999 10.44 -inf
-53.731998 10.44 -inf
-53.067001 10.44 -inf
-52.402 10.44 -inf
-51.737 10.44 -inf
-51.071999 10.44 -inf
-50.407001 10.44 -inf
-49.742001 10.44 -51.477402
-49.077 10.44 -49.689999
-48.411999 10.44 -48.755798
-47.747002 10.44 -47.870201
-47.082001 10.44 -46.837002
-46.417 10.44 -46.237598
-45.751999 10.44 -45.767799
-45.087002 10.44 -45.326801
-44.422001 10.44 -45.211601
-43.757 10.44 -45.1828
-43.091999 10.44 -45.3088
-42.426998 10.44 -45.951401
-41.762001 10.44 -45.9856
-41.097 10.44 -45.674198
-40.431999 10.44 -46.333
-39.766998 10.44 -46.241199
-39.102001 10.44 -47.259998
-38.437 10.44 -46.584999
-37.771999 10.44 -47.767601
-37.106998 10.44 -48.201401
-36.442001 10.44 -47.963799
-35.777 10.44 -47.944
-35.112 10.44 -48.4174
-34.446999 10.44 -49.2076
-33.782001 10.44 -49.619801
-33.117001 10.44 -50.022999
-32.452 10.44 -50.123798
-31.787001 10.44 -51.236198
-31.122 10.44 -51.630402
-30.457001 10.44 -52.330601
