# .PCD v0.7 - Point Cloud Data file format
VERSION 0.7
FIELDS x y z
SIZE 4 4 4
TYPE F F F
COUNT 1 1 1
WIDTH 1702
HEIGHT 1
VIEWPOINT 0 0 0 1 0 0 0
POINTS 1702
DATA ascii
30.856001 -23.040001 -47.517399
31.521 -23.040001 -47.479599
32.186001 -23.040001 -47.668598
32.851002 -23.040001 -48.1078
33.515999 -23.040001 -47.902599
34.181 -23.040001 -48.050201
34.846001 -23.040001 -48.041199
35.511002 -23.040001 -47.742401
36.175999 -23.040001 -47.9062
36.841 -23.040001 -48.183399
37.506001 -23.040001 -48.008801
38.171001 -23.040001 -48.411999
38.835999 -23.040001 -48.361599
39.500999 -23.040001 -48.2626
40.166 -23.040001 -48.170799
40.831001 -23.040001 -48.253601
41.495998 -23.040001 -48.725201
42.160999 -23.040001 -49.108601
42.826 -23.040001 -49.164398
43.491001 -23.040001 -49.382198
44.155998 -23.040001 -49.9384
44.820999 -23.040001 -50.145401
45.486 -23.040001 -50.375801
46.151001 -23.040001 -50.660198
46.816002 -23.040001 -52.037201
47.480999 -23.040001 -53.052399
48.146 -23.040001 -53.523998
48.811001 -23.040001 -54.316002
49.476002 -23.040001 -55.158401
50.140999 -23.040001 -55.811798
50.806 -23.040001 -56.216801
51.471001 -23.040001 -56.646999
52.136002 -23.040001 -57.042999
52.800999 -23.040001 -57.285999
53.466 -23.040001 -57.458801
54.131001 -23.040001 -57.8134
54.796001 -23.040001 -57.982601
55.460999 -23.040001 -58.142799
56.125999 -23.040001 -58.5298
56.791 -23.040001 -58.934799
57.456001 -23.040001 -59.508999
58.120998 -23.040001 -59.761002
58.785999 -23.040001 -60.117401
59.451 -23.040001 -60.526001
60.116001 -23.040001 -61.130798
60.780998 -23.040001 -61.5196
61.445999 -23.040001 -62.135201
62.111 -23.040001 -63.145
62.776001 -23.040001 -64.655197
63.441002 -23.040001 -66.084396
64.106003 -23.040001 -67.445198
64.771004 -23.040001 -68.503601
65.435997 -23.040001 -69.022003
66.100998 -23.040001 -inf
66.765999 -23.040001 -inf
67.431 -23.040001 -inf
68.096001 -23.040001 -inf
68.761002 -23.040001 -inf
-50.938999 -22.32 -inf
-50.273998 -22.32 -inf
-49.609001 -22.32 -inf
-48.944 -22.32 -inf
-48.278999 -22.32 -inf
-47.613998 -22.32 -inf
-46.949001 -22.32 -72.908203
-46.284 -22.32 -72.0802
-45.618999 -22.32 -71.680603
-44.953999 -22.32 -70.182999
-44.289001 -22.32 -68.156197
-43.624001 -22.32 -67.418198
-42.959 -22.32 -66.579399
-42.293999 -22.32 -65.697403
-41.629002 -22.32 -65.112396
-40.964001 -22.32 -64.304199
-40.299 -22.32 -63.958599
-39.633999 -22.32 -63.505001
-38.969002 -22.32 -63.006401
-38.304001 -22.32 -62.577999
-37.639 -22.32 -62.322399
-36.973999 -22.32 -61.933601
-36.308998 -22.32 -61.4188
-35.644001 -22.32 -60.8806
-34.979 -22.32 -60.139
-34.313999 -22.32 -59.944599
-33.648998 -22.32 -59.6548
-32.984001 -22.32 -59.2318
-32.319 -22.32 -59.138199
-31.653999 -22.32 -58.830399
-30.989 -22.32 -58.5676
-30.323999 -22.32 -58.290401
-29.659 -22.32 -57.887199
-28.993999 -22.32 -57.950199
-28.329 -22.32 -58.0438
-27.664 -22.32 -58.070801
-26.999001 -22.32 -58.087002
-26.334 -22.32 -57.7756
-25.669001 -22.32 -57.744999
-25.004 -22.32 -57.8638
-24.339001 -22.32 -57.6208
-23.674 -22.32 -57.399399
-23.009001 -22.32 -56.7136
-22.344 -22.32 -56.465199
-21.679001 -22.32 -56.409401
-21.014 -22.32 -56.5588
-20.349001 -22.32 -56.0998
-19.684 -22.32 -56.193401
-19.018999 -22.32 -55.943199
-18.354 -22.32 -55.374401
-17.688999 -22.32 -54.675999
-17.024 -22.32 -54.612999
-16.358999 -22.32 -54.445599
-15.694 -22.32 -54.445599
-15.029 -22.32 -54.429401
-14.364 -22.32 -54.224201
-13.699 -22.32 -54.240398
-13.034 -22.32 -53.8498
-12.369 -22.32 -53.954201
-11.704 -22.32 -53.633801
-11.039 -22.32 -53.027199
-10.374 -22.32 -52.895802
-9.7089996 -22.32 -52.665401
-9.0439997 -22.32 -52.0966
-8.3789997 -22.32 -51.614201
-7.7140002 -22.32 -52.3144
-7.0489998 -22.32 -51.526001
-6.3839998 -22.32 -51.202
-5.7189999 -22.32 -50.854599
-5.0539999 -22.32 -50.838402
-4.3889999 -22.32 -51.229
-3.724 -22.32 -50.775398
-3.059 -22.32 -50.127399
-2.3940001 -22.32 -50.1166
-1.729 -22.32 -49.639599
-1.064 -22.32 -49.555
-0.39899999 -22.32 -49.4632
0.266 -22.32 -49.691799
0.93099999 -22.32 -49.4776
1.596 -22.32 -49.599998
2.2609999 -22.32 -48.826
2.9260001 -22.32 -48.6964
3.5910001 -22.32 -49.421799
4.256 -22.32 -49.236401
4.921 -22.32 -49.126598
5.586 -22.32 -48.6982
6.2509999 -22.32 -48.501999
6.9159999 -22.32 -48.305801
7.5809999 -22.32 -48.208599
8.2460003 -22.32 -48.028599
8.9110003 -22.32 -48.015999
9.5760002 -22.32 -47.990799
10.241 -22.32 -47.819801
10.906 -22.32 -47.888199
11.571 -22.32 -47.693802
12.236 -22.32 -47.850399
12.901 -22.32 -47.962002
13.566 -22.32 -47.913399
14.231 -22.32 -48.0718
14.896 -22.32 -47.9566
15.561 -22.32 -47.8414
16.226 -22.32 -47.962002
16.891001 -22.32 -47.825199
17.556 -22.32 -47.960201
18.221001 -22.32 -47.791
18.886 -22.32 -47.9674
19.551001 -22.32 -47.845001
20.216 -22.32 -47.735199
20.881001 -22.32 -47.868401
21.546 -22.32 -47.7388
22.211 -22.32 -47.576801
22.875999 -22.32 -47.6866
23.541 -22.32 -47.681198
24.205999 -22.32 -47.611
24.871 -22.32 -47.792801
25.535999 -22.32 -47.760399
26.201 -22.32 -47.677601
26.865999 -22.32 -47.909801
27.531 -22.32 -47.7514
28.195999 -22.32 -47.857601
28.861 -22.32 -47.805401
29.525999 -22.32 -47.8018
30.191 -22.32 -47.745998
30.856001 -22.32 -47.666801
31.521 -22.32 -47.709999
32.186001 -22.32 -47.6884
32.851002 -22.32 -48.194199
33.515999 -22.32 -47.958401
34.181 -22.32 -48.080799
34.846001 -22.32 -48.075401
35.511002 -22.32 -48.105999
36.175999 -22.32 -48.1078
36.841 -22.32 -48.1096
37.506001 -22.32 -48.309399
38.171001 -22.32 -48.6982
38.835999 -22.32 -48.755798
39.500999 -22.32 -48.383202
40.166 -22.32 -48.34
40.831001 -22.32 -48.457001
41.495998 -22.32 -48.635201
42.160999 -22.32 -49.069
42.826 -22.32 -49.511799
43.491001 -22.32 -49.814201
44.155998 -22.32 -50.112999
44.820999 -22.32 -50.278599
45.486 -22.32 -50.548599
46.151001 -22.32 -50.7556
46.816002 -22.32 -51.8428
47.480999 -22.32 -52.805801
48.146 -22.32 -53.169399
48.811001 -22.32 -54.107201
49.476002 -22.32 -55.055801
50.140999 -22.32 -55.417599
50.806 -22.32 -56.540798
51.471001 -22.32 -57.113201
52.136002 -22.32 -57.3148
52.800999 -22.32 -57.437199
53.466 -22.32 -57.4552
54.131001 -22.32 -57.6982
54.796001 -22.32 -57.869202
55.460999 -22.32 -58.096001
56.125999 -22.32 -58.419998
56.791 -22.32 -58.841202
57.456001 -22.32 -59.519798
58.120998 -22.32 -59.744801
58.785999 -22.32 -59.8564
59.451 -22.32 -60.376598
60.116001 -22.32 -61.0462
60.780998 -22.32 -61.526798
61.445999 -22.32 -62.293598
62.111 -22.32 -63.639999
62.776001 -22.32 -65.159203
63.441002 -22.32 -66.25
64.106003 -22.32 -67.234596
64.771004 -22.32 -68.374001
65.435997 -22.32 -69.356796
66.100998 -22.32 -inf
66.765999 -22.32 -inf
67.431 -22.32 -inf
68.096001 -22.32 -inf
68.761002 -22.32 -inf
-50.938999 -21.6 -inf
-50.273998 -21.6 -inf
-49.609001 -21.6 -inf
-48.944 -21.6 -inf
-48.278999 -21.6 -inf
-47.613998 -21.6 -inf
-46.949001 -21.6 -74.677597
-46.284 -21.6 -73.912598
-45.618999 -21.6 -72.1306
-44.953999 -21.6 -70.811203
-44.289001 -21.6 -68.926598
-43.624001 -21.6 -67.8088
-42.959 -21.6 -66.883598
-42.293999 -21.6 -66.0196
-41.629002 -21.6 -65.461601
-40.964001 -21.6 -64.667801
-40.299 -21.6 -64.143997
-39.633999 -21.6 -63.648998
-38.969002 -21.6 -63.060398
-38.304001 -21.6 -62.588799
-37.639 -21.6 -62.207199
-36.973999 -21.6 -61.739201
-36.308998 -21.6 -61.233398
-35.644001 -21.6 -61.184799
-34.979 -21.6 -60.257801
-34.313999 -21.6 -59.978802
-33.648998 -21.6 -59.721401
-32.984001 -21.6 -59.417198
-32.319 -21.6 -59.111198
-31.653999 -21.6 -58.789001
-30.989 -21.6 -58.704399
-30.323999 -21.6 -58.308399
-29.659 -21.6 -58.175201
-28.993999 -21.6 -57.9034
-28.329 -21.6 -58.052799
-27.664 -21.6 -58.085201
-26.999001 -21.6 -58.1824
-26.334 -21.6 -57.905201
-25.669001 -21.6 -57.804401
-25.004 -21.6 -57.413799
-24.339001 -21.6 -57.4678
-23.674 -21.6 -57.223
-23.009001 -21.6 -56.719002
-22.344 -21.6 -56.222198
-21.679001 -21.6 -56.3158
-21.014 -21.6 -56.083599
-20.349001 -21.6 -55.835201
-19.684 -21.6 -55.824402
-19.018999 -21.6 -55.581402
-18.354 -21.6 -55.057598
-17.688999 -21.6 -54.420399
-17.024 -21.6 -54.4492
-16.358999 -21.6 -54.636398
-15.694 -21.6 -54.5392
-15.029 -21.6 -54.123402
-14.364 -21.6 -54.152199
-13.699 -21.6 -54.211601
-13.034 -21.6 -53.880402
-12.369 -21.6 -54.0658
-11.704 -21.6 -54.1576
-11.039 -21.6 -53.3116
-10.374 -21.6 -53.169399
-9.7089996 -21.6 -52.566399
-9.0439997 -21.6 -52.233398
-8.3789997 -21.6 -52.094799
-7.7140002 -21.6 -51.826599
-7.0489998 -21.6 -51.443199
-6.3839998 -21.6 -51.378399
-5.7189999 -21.6 -50.872601
-5.0539999 -21.6 -50.915798
-4.3889999 -21.6 -51.1408
-3.724 -21.6 -50.9464
-3.059 -21.6 -50.625999
-2.3940001 -21.6 -50.195801
-1.729 -21.6 -49.700802
-1.064 -21.6 -49.798
-0.39899999 -21.6 -49.536999
0.266 -21.6 -49.7062
0.93099999 -21.6 -49.320999
1.596 -21.6 -49.1464
2.2609999 -21.6 -48.6838
2.9260001 -21.6 -48.755798
3.5910001 -21.6 -49.285
4.256 -21.6 -49.1572
4.921 -21.6 -48.757599
5.586 -21.6 -48.689201
6.2509999 -21.6 -48.52
6.9159999 -21.6 -48.411999
7.5809999 -21.6 -48.372398
8.2460003 -21.6 -47.908001
8.9110003 -21.6 -47.935001
9.5760002 -21.6 -47.978199
10.241 -21.6 -47.976398
10.906 -21.6 -47.886398
11.571 -21.6 -47.807201
12.236 -21.6 -47.794601
12.901 -21.6 -47.808998
13.566 -21.6 -47.908001
14.231 -21.6 -47.7892
14.896 -21.6 -47.859402
15.561 -21.6 -47.749599
16.226 -21.6 -47.529999
16.891001 -21.6 -47.722599
17.556 -21.6 -48.1744
18.221001 -21.6 -48.089802
18.886 -21.6 -47.9296
19.551001 -21.6 -48.066399
20.216 -21.6 -48.208599
20.881001 -21.6 -48.0322
21.546 -21.6 -47.913399
22.211 -21.6 -47.747799
22.875999 -21.6 -47.796398
23.541 -21.6 -47.7784
24.205999 -21.6 -47.733398
24.871 -21.6 -47.693802
25.535999 -21.6 -47.6614
26.201 -21.6 -47.796398
26.865999 -21.6 -47.758598
27.531 -21.6 -47.740601
28.195999 -21.6 -47.747799
28.861 -21.6 -47.8522
29.525999 -21.6 -47.735199
30.191 -21.6 -47.5336
30.856001 -21.6 -47.528198
31.521 -21.6 -47.684799
32.186001 -21.6 -47.962002
32.851002 -21.6 -48.176201
33.515999 -21.6 -47.843201
34.181 -21.6 -47.902599
34.846001 -21.6 -48.062801
35.511002 -21.6 -48.080799
36.175999 -21.6 -48.012402
36.841 -21.6 -48.1978
37.506001 -21.6 -48.482201
38.171001 -21.6 -48.617199
38.835999 -21.6 -48.627998
39.500999 -21.6 -48.577599
40.166 -21.6 -48.754002
40.831001 -21.6 -48.6208
41.495998 -21.6 -49.013199
42.160999 -21.6 -49.176998
42.826 -21.6 -49.591
43.491001 -21.6 -49.861
44.155998 -21.6 -50.175999
44.820999 -21.6 -50.325401
45.486 -21.6 -50.8834
46.151001 -21.6 -51.1894
46.816002 -21.6 -51.742001
47.480999 -21.6 -52.575401
48.146 -21.6 -53.1712
48.811001 -21.6 -54.062199
49.476002 -21.6 -55.030602
50.140999 -21.6 -55.702
50.806 -21.6 -56.346401
51.471001 -21.6 -56.8396
52.136002 -21.6 -57.005199
52.800999 -21.6 -57.258999
53.466 -21.6 -57.413799
54.131001 -21.6 -57.534401
54.796001 -21.6 -57.6064
55.460999 -21.6 -58.058201
56.125999 -21.6 -58.4398
56.791 -21.6 -58.839401
57.456001 -21.6 -59.2696
58.120998 -21.6 -59.555801
58.785999 -21.6 -59.8438
59.451 -21.6 -60.4198
60.116001 -21.6 -61.1506
60.780998 -21.6 -61.7374
61.445999 -21.6 -62.479
62.111 -21.6 -63.721001
62.776001 -21.6 -65.110603
63.441002 -21.6 -66.447998
64.106003 -21.6 -67.468597
64.771004 -21.6 -68.393799
65.435997 -21.6 -69.894997
66.100998 -21.6 -inf
66.765999 -21.6 -inf
67.431 -21.6 -inf
68.096001 -21.6 -inf
68.761002 -21.6 -inf
-50.938999 -20.879999 -inf
-50.273998 -20.879999 -inf
-49.609001 -20.879999 -inf
-48.944 -20.879999 -inf
-48.278999 -20.879999 -inf
-47.613998 -20.879999 -inf
-46.949001 -20.879999 -75.060997
-46.284 -20.879999 -74.465202
-45.618999 -20.879999 -72.171997
-44.953999 -20.879999 -70.915604
-44.289001 -20.879999 -69.653801
-43.624001 -20.879999 -68.287598
-42.959 -20.879999 -67.155403
-42.293999 -20.879999 -66.528999
-41.629002 -20.879999 -65.616402
-40.964001 -20.879999 -65.139397
-40.299 -20.879999 -64.404999
-39.633999 -20.879999 -63.825401
-38.969002 -20.879999 -63.362801
-38.304001 -20.879999 -62.875
-37.639 -20.879999 -62.3494
-36.973999 -20.879999 -61.7248
-36.308998 -20.879999 -61.267601
-35.644001 -20.879999 -60.887798
-34.979 -20.879999 -60.426998
-34.313999 -20.879999 -60.0238
-33.648998 -20.879999 -59.836601
-32.984001 -20.879999 -59.4118
-32.319 -20.879999 -59.145401
-31.653999 -20.879999 -58.756599
-30.989 -20.879999 -58.771
-30.323999 -20.879999 -58.765598
-29.659 -20.879999 -58.083401
-28.993999 -20.879999 -57.993401
-28.329 -20.879999 -58.1446
-27.664 -20.879999 -58.473999
-26.999001 -20.879999 -57.980801
-26.334 -20.879999 -57.7234
-25.669001 -20.879999 -57.516399
-25.004 -20.879999 -57.282398
-24.339001 -20.879999 -57.1078
-23.674 -20.879999 -57.194199
-23.009001 -20.879999 -56.607399
-22.344 -20.879999 -56.2132
-21.679001 -20.879999 -55.980999
-21.014 -20.879999 -55.901798
-20.349001 -20.879999 -55.732601
-19.684 -20.879999 -55.930599
-19.018999 -20.879999 -55.351002
-18.354 -20.879999 -54.958599
-17.688999 -20.879999 -54.713799
-17.024 -20.879999 -54.685001
-16.358999 -20.879999 -54.416801
-15.694 -20.879999 -54.051399
-15.029 -20.879999 -54.051399
-14.364 -20.879999 -54.287201
-13.699 -20.879999 -54.222401
-13.034 -20.879999 -54.1576
-12.369 -20.879999 -53.5924
-11.704 -20.879999 -53.615799
-11.039 -20.879999 -53.135201
-10.374 -20.879999 -52.551998
-9.7089996 -20.879999 -52.357601
-9.0439997 -20.879999 -52.272999
-8.3789997 -20.879999 -52.195599
-7.7140002 -20.879999 -52.2136
-7.0489998 -20.879999 -51.747398
-6.3839998 -20.879999 -51.198399
-5.7189999 -20.879999 -51.0112
-5.0539999 -20.879999 -50.937401
-4.3889999 -20.879999 -51.007599
-3.724 -20.879999 -50.4856
-3.059 -20.879999 -50.6656
-2.3940001 -20.879999 -49.895199
-1.729 -20.879999 -49.429001
-1.064 -20.879999 -49.6558
-0.39899999 -20.879999 -49.500999
0.266 -20.879999 -49.787201
0.93099999 -20.879999 -49.326401
1.596 -20.879999 -49.105
2.2609999 -20.879999 -48.894402
2.9260001 -20.879999 -49.203999
3.5910001 -20.879999 -49.2076
4.256 -20.879999 -48.979
4.921 -20.879999 -48.845798
5.586 -20.879999 -48.534401
6.2509999 -20.879999 -48.615398
6.9159999 -20.879999 -48.537998
7.5809999 -20.879999 -48.586601
8.2460003 -20.879999 -48.433601
8.9110003 -20.879999 -48.0952
9.5760002 -20.879999 -48.008801
10.241 -20.879999 -48.195999
10.906 -20.879999 -48.1492
11.571 -20.879999 -48.035801
12.236 -20.879999 -47.819801
12.901 -20.879999 -47.740601
13.566 -20.879999 -47.708199
14.231 -20.879999 -47.6632
14.896 -20.879999 -47.758598
15.561 -20.879999 -47.666801
16.226 -20.879999 -47.427399
16.891001 -20.879999 -47.782001
17.556 -20.879999 -48.061001
18.221001 -20.879999 -48.195999
18.886 -20.879999 -47.990799
19.551001 -20.879999 -47.782001
20.216 -20.879999 -47.825199
20.881001 -20.879999 -47.807201
21.546 -20.879999 -47.654202
22.211 -20.879999 -47.578602
22.875999 -20.879999 -47.639801
23.541 -20.879999 -47.7136
24.205999 -20.879999 -47.771198
24.871 -20.879999 -47.7118
25.535999 -20.879999 -47.749599
26.201 -20.879999 -47.861198
26.865999 -20.879999 -47.859402
27.531 -20.879999 -47.827
28.195999 -20.879999 -47.728001
28.861 -20.879999 -47.837799
29.525999 -20.879999 -47.735199
30.191 -20.879999 -47.7262
30.856001 -20.879999 -47.524601
31.521 -20.879999 -47.771198
32.186001 -20.879999 -47.976398
32.851002 -20.879999 -48.419201
33.515999 -20.879999 -48.131199
34.181 -20.879999 -48.0592
34.846001 -20.879999 -48.093399
35.511002 -20.879999 -48.1366
36.175999 -20.879999 -48.273399
36.841 -20.879999 -48.129398
37.506001 -20.879999 -48.779202
38.171001 -20.879999 -48.563202
38.835999 -20.879999 -48.485802
39.500999 -20.879999 -48.601002
40.166 -20.879999 -48.746799
40.831001 -20.879999 -48.7756
41.495998 -20.879999 -49.023998
42.160999 -20.879999 -49.241798
42.826 -20.879999 -49.661201
43.491001 -20.879999 -50.057201
44.155998 -20.879999 -50.177799
44.820999 -20.879999 -50.265999
45.486 -20.879999 -50.653
46.151001 -20.879999 -51.308201
46.816002 -20.879999 -51.706001
47.480999 -20.879999 -53.037998
48.146 -20.879999 -53.569
48.811001 -20.879999 -54.089199
49.476002 -20.879999 -54.7174
50.140999 -20.879999 -55.441002
50.806 -20.879999 -55.928799
51.471001 -20.879999 -56.4202
52.136002 -20.879999 -56.8288
52.800999 -20.879999 -57.215801
53.466 -20.879999 -57.374199
54.131001 -20.879999 -57.575802
54.796001 -20.879999 -57.678398
55.460999 -20.879999 -58.153599
56.125999 -20.879999 -58.5532
56.791 -20.879999 -58.902401
57.456001 -20.879999 -59.242599
58.120998 -20.879999 -59.5774
58.785999 -20.879999 -60.047199
59.451 -20.879999 -60.4702
60.116001 -20.879999 -61.168598
60.780998 -20.879999 -61.780602
61.445999 -20.879999 -62.801201
62.111 -20.879999 -63.928001
62.776001 -20.879999 -65.346397
63.441002 -20.879999 -66.613602
64.106003 -20.879999 -67.6306
64.771004 -20.879999 -68.383003
65.435997 -20.879999 -inf
66.100998 -20.879999 -inf
66.765999 -20.879999 -inf
67.431 -20.879999 -inf
68.096001 -20.879999 -inf
68.761002 -20.879999 -inf
-50.938999 -20.16 -inf
-50.273998 -20.16 -inf
-49.609001 -20.16 -inf
-48.944 -20.16 -inf
-48.278999 -20.16 -inf
-47.613998 -20.16 -inf
-46.949001 -20.16 -inf
-46.284 -20.16 -74.632599
-45.618999 -20.16 -72.341202
-44.953999 -20.16 -70.9786
-44.289001 -20.16 -69.992203
-43.624001 -20.16 -68.751999
-42.959 -20.16 -67.774597
-42.293999 -20.16 -66.799004
-41.629002 -20.16 -66.102402
-40.964001 -20.16 -65.3806
-40.299 -20.16 -64.734398
-39.633999 -20.16 -64
-38.969002 -20.16 -63.456402
-38.304001 -20.16 -62.946999
-37.639 -20.16 -62.4412
-36.973999 -20.16 -61.993
-36.308998 -20.16 -61.402599
-35.644001 -20.16 -61.102001
-34.979 -20.16 -60.781601
-34.313999 -20.16 -60.315399
-33.648998 -20.16 -59.778999
-32.984001 -20.16 -59.3722
-32.319 -20.16 -59.260601
-31.653999 -20.16 -58.645
-30.989 -20.16 -58.691799
-30.323999 -20.16 -58.385799
-29.659 -20.16 -58.099602
-28.993999 -20.16 -57.847599
-28.329 -20.16 -58.011398
-27.664 -20.16 -58.241798
-26.999001 -20.16 -58.358799
-26.334 -20.16 -57.8764
-25.669001 -20.16 -57.689201
-25.004 -20.16 -57.356201
-24.339001 -20.16 -56.794601
-23.674 -20.16 -57.034
-23.009001 -20.16 -56.2276
-22.344 -20.16 -56.250999
-21.679001 -20.16 -56.121399
-21.014 -20.16 -55.694801
-20.349001 -20.16 -55.811798
-19.684 -20.16 -55.559799
-19.018999 -20.16 -55.161999
-18.354 -20.16 -54.686798
-17.688999 -20.16 -54.013599
-17.024 -20.16 -54.247601
-16.358999 -20.16 -53.880402
-15.694 -20.16 -53.808399
-15.029 -20.16 -53.740002
-14.364 -20.16 -53.676998
-13.699 -20.16 -53.7346
-13.034 -20.16 -53.833599
-12.369 -20.16 -53.4286
-11.704 -20.16 -53.525799
-11.039 -20.16 -53.0704
-10.374 -20.16 -52.602402
-9.7089996 -20.16 -52.3414
-9.0439997 -20.16 -52.245998
-8.3789997 -20.16 -52.6222
-7.7140002 -20.16 -52.0732
-7.0489998 -20.16 -52.1488
-6.3839998 -20.16 -51.166
-5.7189999 -20.16 -51.196602
-5.0539999 -20.16 -51.248798
-4.3889999 -20.16 -50.942799
-3.724 -20.16 -50.719601
-3.059 -20.16 -50.8078
-2.3940001 -20.16 -50.379398
-1.729 -20.16 -50.1292
-1.064 -20.16 -50.175999
-0.39899999 -20.16 -49.895199
0.266 -20.16 -49.281399
0.93099999 -20.16 -49.3354
1.596 -20.16 -48.9412
2.2609999 -20.16 -49.227402
2.9260001 -20.16 -49.380402
3.5910001 -20.16 -49.5154
4.256 -20.16 -49.295799
4.921 -20.16 -49.263401
5.586 -20.16 -48.651402
6.2509999 -20.16 -48.746799
6.9159999 -20.16 -48.737801
7.5809999 -20.16 -48.291401
8.2460003 -20.16 -48.316601
8.9110003 -20.16 -48.158199
9.5760002 -20.16 -48.244598
10.241 -20.16 -48.304001
10.906 -20.16 -48.113201
11.571 -20.16 -48.165401
12.236 -20.16 -47.996201
12.901 -20.16 -47.996201
13.566 -20.16 -47.7514
14.231 -20.16 -47.7136
14.896 -20.16 -47.506599
15.561 -20.16 -47.771198
16.226 -20.16 -47.5588
16.891001 -20.16 -47.783798
17.556 -20.16 -47.9692
18.221001 -20.16 -48.0718
18.886 -20.16 -48.080799
19.551001 -20.16 -47.8144
20.216 -20.16 -47.758598
20.881001 -20.16 -47.7514
21.546 -20.16 -47.677601
22.211 -20.16 -47.639801
22.875999 -20.16 -47.659599
23.541 -20.16 -47.719002
24.205999 -20.16 -48.015999
24.871 -20.16 -47.924198
25.535999 -20.16 -47.924198
26.201 -20.16 -47.8918
26.865999 -20.16 -47.924198
27.531 -20.16 -47.827
28.195999 -20.16 -47.771198
28.861 -20.16 -47.602001
29.525999 -20.16 -47.587601
30.191 -20.16 -47.733398
30.856001 -20.16 -47.792801
31.521 -20.16 -47.971001
32.186001 -20.16 -48.158199
32.851002 -20.16 -48.284199
33.515999 -20.16 -48.050201
34.181 -20.16 -47.990799
34.846001 -20.16 -47.988998
35.511002 -20.16 -47.963799
36.175999 -20.16 -48.035801
36.841 -20.16 -48.2896
37.506001 -20.16 -48.678398
38.171001 -20.16 -48.9916
38.835999 -20.16 -49.1194
39.500999 -20.16 -48.807999
40.166 -20.16 -48.790001
40.831001 -20.16 -48.959202
41.495998 -20.16 -49.1464
42.160999 -20.16 -49.3228
42.826 -20.16 -49.839401
43.491001 -20.16 -50.122002
44.155998 -20.16 -50.075199
44.820999 -20.16 -50.202999
45.486 -20.16 -50.6926
46.151001 -20.16 -51.210999
46.816002 -20.16 -51.529598
47.480999 -20.16 -52.0354
48.146 -20.16 -53.225201
48.811001 -20.16 -53.687801
49.476002 -20.16 -54.026199
50.140999 -20.16 -55.3078
50.806 -20.16 -56.015202
51.471001 -20.16 -56.499401
52.136002 -20.16 -56.902599
52.800999 -20.16 -57.291401
53.466 -20.16 -57.566799
54.131001 -20.16 -57.750401
54.796001 -20.16 -57.923199
55.460999 -20.16 -58.295799
56.125999 -20.16 -58.626999
56.791 -20.16 -59.095001
57.456001 -20.16 -59.476601
58.120998 -20.16 -60.054401
58.785999 -20.16 -60.094002
59.451 -20.16 -60.625
60.116001 -20.16 -61.157799
60.780998 -20.16 -61.924599
61.445999 -20.16 -62.9128
62.111 -20.16 -64.021599
62.776001 -20.16 -65.276199
63.441002 -20.16 -66.604599
64.106003 -20.16 -67.493797
64.771004 -20.16 -68.410004
65.435997 -20.16 -inf
66.100998 -20.16 -inf
66.765999 -20.16 -inf
67.431 -20.16 -inf
68.096001 -20.16 -inf
68.761002 -20.16 -inf
-50.938999 -19.440001 -inf
-50.273998 -19.440001 -inf
-49.609001 -19.440001 -inf
-48.944 -19.440001 -inf
-48.278999 -19.440001 -inf
-47.613998 -19.440001 -inf
-46.949001 -19.440001 -inf
-46.284 -19.440001 -74.261803
-45.618999 -19.440001 -72.7696
-44.953999 -19.440001 -71.012802
-44.289001 -19.440001 -70.454803
-43.624001 -19.440001 -69.079597
-42.959 -19.440001 -68.226402
-42.293999 -19.440001 -67.337196
-41.629002 -19.440001 -66.439003
-40.964001 -19.440001 -65.744202
-40.299 -19.440001 -65.213203
-39.633999 -19.440001 -64.4086
-38.969002 -19.440001 -63.722801
-38.304001 -19.440001 -63.177399
-37.639 -19.440001 -62.583401
-36.973999 -19.440001 -62.075802
-36.308998 -19.440001 -61.4944
-35.644001 -19.440001 -60.794201
-34.979 -19.440001 -60.452202
-34.313999 -19.440001 -60.160599
-33.648998 -19.440001 -59.851002
-32.984001 -19.440001 -59.508999
-32.319 -19.440001 -59.489201
-31.653999 -19.440001 -58.869999
-30.989 -19.440001 -58.484798
-30.323999 -19.440001 -58.430801
-29.659 -19.440001 -58.281399
-28.993999 -19.440001 -57.9016
-28.329 -19.440001 -57.599201
-27.664 -19.440001 -57.717999
-26.999001 -19.440001 -57.8134
-26.334 -19.440001 -57.676601
-25.669001 -19.440001 -57.7216
-25.004 -19.440001 -56.990799
-24.339001 -19.440001 -56.7136
-23.674 -19.440001 -56.564201
-23.009001 -19.440001 -56.492199
-22.344 -19.440001 -56.062
-21.679001 -19.440001 -56.1754
-21.014 -19.440001 -55.815399
-20.349001 -19.440001 -55.6408
-19.684 -19.440001 -55.374401
-19.018999 -19.440001 -55.0882
-18.354 -19.440001 -55.023399
-17.688999 -19.440001 -54.256599
-17.024 -19.440001 -54.058601
-16.358999 -19.440001 -54.3484
-15.694 -19.440001 -53.716599
-15.029 -19.440001 -53.284599
-14.364 -19.440001 -53.1838
-13.699 -19.440001 -53.455601
-13.034 -19.440001 -53.520401
-12.369 -19.440001 -53.410599
-11.704 -19.440001 -53.353001
-11.039 -19.440001 -53.307999
-10.374 -19.440001 -52.645599
-9.7089996 -19.440001 -52.438599
-9.0439997 -19.440001 -52.343201
-8.3789997 -19.440001 -52.638401
-7.7140002 -19.440001 -51.603401
-7.0489998 -19.440001 -51.6106
-6.3839998 -19.440001 -51.558399
-5.7189999 -19.440001 -51.3442
-5.0539999 -19.440001 -51.057999
-4.3889999 -19.440001 -50.975201
-3.724 -19.440001 -50.771801
-3.059 -19.440001 -50.669201
-2.3940001 -19.440001 -50.2174
-1.729 -19.440001 -50.145401
-1.064 -19.440001 -50.048199
-0.39899999 -19.440001 -49.4884
0.266 -19.440001 -49.754799
0.93099999 -19.440001 -49.277802
1.596 -19.440001 -49.533401
2.2609999 -19.440001 -49.5154
2.9260001 -19.440001 -49.740398
3.5910001 -19.440001 -49.418201
4.256 -19.440001 -49.456001
4.921 -19.440001 -49.155399
5.586 -19.440001 -48.780998
6.2509999 -19.440001 -48.8764
6.9159999 -19.440001 -48.255402
7.5809999 -19.440001 -48.284199
8.2460003 -19.440001 -48.379601
8.9110003 -19.440001 -48.2752
9.5760002 -19.440001 -48.282398
10.241 -19.440001 -48.321999
10.906 -19.440001 -48.257198
11.571 -19.440001 -48.167198
12.236 -19.440001 -48.051998
12.901 -19.440001 -48.091599
13.566 -19.440001 -48.251801
14.231 -19.440001 -48.089802
14.896 -19.440001 -47.466999
15.561 -19.440001 -47.854
16.226 -19.440001 -47.9062
16.891001 -19.440001 -47.8396
17.556 -19.440001 -47.854
18.221001 -19.440001 -48.028599
18.886 -19.440001 -47.974602
19.551001 -19.440001 -47.960201
20.216 -19.440001 -47.9062
20.881001 -19.440001 -48.061001
21.546 -19.440001 -47.737
22.211 -19.440001 -47.949402
22.875999 -19.440001 -47.8396
23.541 -19.440001 -47.925999
24.205999 -19.440001 -48.118599
24.871 -19.440001 -48.170799
25.535999 -19.440001 -48.075401
26.201 -19.440001 -47.951199
26.865999 -19.440001 -47.927799
27.531 -19.440001 -47.755001
28.195999 -19.440001 -47.729801
28.861 -19.440001 -47.719002
29.525999 -19.440001 -47.830601
30.191 -19.440001 -47.8162
30.856001 -19.440001 -47.9062
31.521 -19.440001 -47.927799
32.186001 -19.440001 -48.158199
32.851002 -19.440001 -48.170799
33.515999 -19.440001 -47.936798
34.181 -19.440001 -48.217602
34.846001 -19.440001 -48.277
35.511002 -19.440001 -47.965599
36.175999 -19.440001 -48.2374
36.841 -19.440001 -48.388599
37.506001 -19.440001 -48.556
38.171001 -19.440001 -48.624401
38.835999 -19.440001 -48.853001
39.500999 -19.440001 -49.000599
40.166 -19.440001 -49.110401
40.831001 -19.440001 -48.9916
41.495998 -19.440001 -49.164398
42.160999 -19.440001 -49.483002
42.826 -19.440001 -49.763802
43.491001 -19.440001 -49.959999
44.155998 -19.440001 -50.111198
44.820999 -19.440001 -50.347
45.486 -19.440001 -50.625999
46.151001 -19.440001 -50.944599
46.816002 -19.440001 -51.455799
47.480999 -19.440001 -52.742802
48.146 -19.440001 -53.353001
48.811001 -19.440001 -53.522202
49.476002 -19.440001 -55.018002
50.140999 -19.440001 -55.808201
50.806 -19.440001 -56.043999
51.471001 -19.440001 -56.684799
52.136002 -19.440001 -57.120399
52.800999 -19.440001 -57.516399
53.466 -19.440001 -57.719799
54.131001 -19.440001 -57.9142
54.796001 -19.440001 -58.038399
55.460999 -19.440001 -58.358799
56.125999 -19.440001 -58.871799
56.791 -19.440001 -59.330799
57.456001 -19.440001 -59.701599
58.120998 -19.440001 -60.239799
58.785999 -19.440001 -60.2668
59.451 -19.440001 -60.778
60.116001 -19.440001 -61.417
60.780998 -19.440001 -62.066799
61.445999 -19.440001 -63.004601
62.111 -19.440001 -64.043198
62.776001 -19.440001 -65.272598
63.441002 -19.440001 -66.419197
64.106003 -19.440001 -67.517197
64.771004 -19.440001 -68.361397
65.435997 -19.440001 -inf
66.100998 -19.440001 -inf
66.765999 -19.440001 -inf
67.431 -19.440001 -inf
68.096001 -19.440001 -inf
68.761002 -19.440001 -inf
-50.938999 -18.719999 -inf
-50.273998 -18.719999 -inf
-49.609001 -18.719999 -inf
-48.944 -18.719999 -inf
-48.278999 -18.719999 -inf
-47.613998 -18.719999 -inf
-46.949001 -18.719999 -inf
-46.284 -18.719999 -73.887398
-45.618999 -18.719999 -72.863197
-44.953999 -18.719999 -71.268402
-44.289001 -18.719999 -70.627602
-43.624001 -18.719999 -69.423401
-42.959 -18.719999 -68.462196
-42.293999 -18.719999 -67.9366
-41.629002 -18.719999 -67.222
-40.964001 -18.719999 -66.215797
-40.299 -18.719999 -65.420197
-39.633999 -18.719999 -64.655197
-38.969002 -18.719999 -63.877602
-38.304001 -18.719999 -63.238602
-37.639 -18.719999 -62.815601
-36.973999 -18.719999 -62.2486
-36.308998 -18.719999 -61.831001
-35.644001 -18.719999 -60.9454
-34.979 -18.719999 -60.594398
-34.313999 -18.719999 -60.290199
-33.648998 -18.719999 -60.007599
-32.984001 -18.719999 -59.608002
-32.319 -18.719999 -59.455002
-31.653999 -18.719999 -59.048199
-30.989 -18.719999 -58.583801
-30.323999 -18.719999 -58.511799
-29.659 -18.719999 -58.398399
-28.993999 -18.719999 -57.952
-28.329 -18.719999 -57.5452
-27.664 -18.719999 -57.501999
-26.999001 -18.719999 -57.5182
-26.334 -18.719999 -57.2626
-25.669001 -18.719999 -57.127602
-25.004 -18.719999 -56.835999
-24.339001 -18.719999 -56.638
-23.674 -18.719999 -56.3032
-23.009001 -18.719999 -56.054798
-22.344 -18.719999 -55.900002
-21.679001 -18.719999 -55.811798
-21.014 -18.719999 -55.430199
-20.349001 -18.719999 -55.502201
-19.684 -18.719999 -55.063
-19.018999 -18.719999 -54.661598
-18.354 -18.719999 -54.3862
-17.688999 -18.719999 -54.281799
-17.024 -18.719999 -54.109001
-16.358999 -18.719999 -54.161201
-15.694 -18.719999 -53.450199
-15.029 -18.719999 -53.169399
-14.364 -18.719999 -52.903
-13.699 -18.719999 -52.870602
-13.034 -18.719999 -53.192799
-12.369 -18.719999 -53.1856
-11.704 -18.719999 -53.1334
-11.039 -18.719999 -52.753601
-10.374 -18.719999 -52.766201
-9.7089996 -18.719999 -52.620399
-9.0439997 -18.719999 -52.042599
-8.3789997 -18.719999 -52.296398
-7.7140002 -18.719999 -52.305401
-7.0489998 -18.719999 -51.553001
-6.3839998 -18.719999 -51.576401
-5.7189999 -18.719999 -51.2794
-5.0539999 -18.719999 -51.221802
-4.3889999 -18.719999 -50.741199
-3.724 -18.719999 -50.494598
-3.059 -18.719999 -50.6404
-2.3940001 -18.719999 -50.111198
-1.729 -18.719999 -50.390202
-1.064 -18.719999 -49.763802
-0.39899999 -18.719999 -49.679199
0.266 -18.719999 -50.138199
0.93099999 -18.719999 -49.3498
1.596 -18.719999 -49.779999
2.2609999 -18.719999 -49.648602
2.9260001 -18.719999 -49.315601
3.5910001 -18.719999 -49.077999
4.256 -18.719999 -49.110401
4.921 -18.719999 -48.975399
5.586 -18.719999 -49.1194
6.2509999 -18.719999 -49.180599
6.9159999 -18.719999 -48.491199
7.5809999 -18.719999 -48.563202
8.2460003 -18.719999 -48.536201
8.9110003 -18.719999 -48.384998
9.5760002 -18.719999 -48.379601
10.241 -18.719999 -48.3004
10.906 -18.719999 -48.4552
11.571 -18.719999 -48.3004
12.236 -18.719999 -48.129398
12.901 -18.719999 -48.305801
13.566 -18.719999 -48.271599
14.231 -18.719999 -48.408401
14.896 -18.719999 -48.105999
15.561 -18.719999 -48.181599
16.226 -18.719999 -48.2626
16.891001 -18.719999 -48.239201
17.556 -18.719999 -48.068199
18.221001 -18.719999 -48.0718
18.886 -18.719999 -48.053799
19.551001 -18.719999 -48.0466
20.216 -18.719999 -47.881001
20.881001 -18.719999 -48.015999
21.546 -18.719999 -47.825199
22.211 -18.719999 -47.933201
22.875999 -18.719999 -48.086201
23.541 -18.719999 -48.194199
24.205999 -18.719999 -48.152802
24.871 -18.719999 -47.988998
25.535999 -18.719999 -47.850399
26.201 -18.719999 -47.8162
26.865999 -18.719999 -47.682999
27.531 -18.719999 -47.6506
28.195999 -18.719999 -47.5336
28.861 -18.719999 -47.612801
29.525999 -18.719999 -47.607399
30.191 -18.719999 -47.692001
30.856001 -18.719999 -47.780201
31.521 -18.719999 -48.0718
32.186001 -18.719999 -48.1222
32.851002 -18.719999 -48.311199
33.515999 -18.719999 -48.003399
34.181 -18.719999 -48.098801
34.846001 -18.719999 -48.208599
35.511002 -18.719999 -48.156399
36.175999 -18.719999 -48.291401
36.841 -18.719999 -48.489399
37.506001 -18.719999 -48.3904
38.171001 -18.719999 -48.681999
38.835999 -18.719999 -48.806198
39.500999 -18.719999 -48.834999
40.166 -18.719999 -48.9664
40.831001 -18.719999 -49.4254
41.495998 -18.719999 -49.254398
42.160999 -18.719999 -49.5658
42.826 -18.719999 -49.774601
43.491001 -18.719999 -49.8106
44.155998 -18.719999 -50.1166
44.820999 -18.719999 -50.2822
45.486 -18.719999 -50.548599
46.151001 -18.719999 -51.162399
46.816002 -18.719999 -51.783401
47.480999 -18.719999 -53.074001
48.146 -18.719999 -53.741798
48.811001 -18.719999 -54.5662
49.476002 -18.719999 -55.1656
50.140999 -18.719999 -55.5256
50.806 -18.719999 -56.223999
51.471001 -18.719999 -56.6362
52.136002 -18.719999 -57.438999
52.800999 -18.719999 -57.6082
53.466 -18.719999 -57.917801
54.131001 -18.719999 -58.085201
54.796001 -18.719999 -58.3498
55.460999 -18.719999 -58.952801
56.125999 -18.719999 -59.303799
56.791 -18.719999 -59.6026
57.456001 -18.719999 -59.906799
58.120998 -18.719999 -60.205601
58.785999 -18.719999 -60.232601
59.451 -18.719999 -60.657398
60.116001 -18.719999 -61.463799
60.780998 -18.719999 -62.178398
61.445999 -18.719999 -63.020802
62.111 -18.719999 -64.054001
62.776001 -18.719999 -65.078201
63.441002 -18.719999 -66.1222
64.106003 -18.719999 -67.384003
64.771004 -18.719999 -inf
65.435997 -18.719999 -inf
66.100998 -18.719999 -inf
66.765999 -18.719999 -inf
67.431 -18.719999 -inf
68.096001 -18.719999 -inf
68.761002 -18.719999 -inf
-50.938999 -18 -inf
-50.273998 -18 -inf
-49.609001 -18 -inf
-48.944 -18 -inf
-48.278999 -18 -inf
-47.613998 -18 -inf
-46.949001 -18 -inf
-46.284 -18 -inf
-45.618999 -18 -73.023399
-44.953999 -18 -71.610397
-44.289001 -18 -70.859802
-43.624001 -18 -69.5998
-42.959 -18 -69.014801
-42.293999 -18 -68.134598
-41.629002 -18 -67.6558
-40.964001 -18 -66.592003
-40.299 -18 -65.681198
-39.633999 -18 -64.981003
-38.969002 -18 -64.309601
-38.304001 -18 -63.319599
-37.639 -18 -62.7328
-36.973999 -18 -62.410599
-36.308998 -18 -61.9408
-35.644001 -18 -61.1992
-34.979 -18 -60.598
-34.313999 -18 -60.292
-33.648998 -18 -60.108398
-32.984001 -18 -59.710602
-32.319 -18 -59.158001
-31.653999 -18 -58.749401
-30.989 -18 -58.7728
-30.323999 -18 -58.5928
-29.659 -18 -58.2868
-28.993999 -18 -57.885399
-28.329 -18 -57.601002
-27.664 -18 -57.253601
-26.999001 -18 -57.419201
-26.334 -18 -57.183399
-25.669001 -18 -57.219398
-25.004 -18 -56.782001
-24.339001 -18 -56.531799
-23.674 -18 -56.272598
-23.009001 -18 -56.184399
-22.344 -18 -55.827999
-21.679001 -18 -55.423
-21.014 -18 -55.1134
-20.349001 -18 -55.071999
-19.684 -18 -54.8578
-19.018999 -18 -54.506802
-18.354 -18 -54.472599
-17.688999 -18 -54.071201
-17.024 -18 -53.828201
-16.358999 -18 -53.686001
-15.694 -18 -53.433998
-15.029 -18 -53.237801
-14.364 -18 -53.012798
-13.699 -18 -52.75
-13.034 -18 -52.998402
-12.369 -18 -53.115398
-11.704 -18 -53.232399
-11.039 -18 -52.807598
-10.374 -18 -52.773399
-9.7089996 -18 -52.308998
-9.0439997 -18 -52.233398
-8.3789997 -18 -52.3414
-7.7140002 -18 -52.040798
-7.0489998 -18 -52.2262
-6.3839998 -18 -51.479198
-5.7189999 -18 -51.410801
-5.0539999 -18 -51.1408
-4.3889999 -18 -51.084999
-3.724 -18 -50.669201
-3.059 -18 -50.732201
-2.3940001 -18 -50.797001
-1.729 -18 -50.314602
-1.064 -18 -49.8232
-0.39899999 -18 -49.4632
0.266 -18 -49.6558
0.93099999 -18 -49.5406
1.596 -18 -49.398399
2.2609999 -18 -49.533401
2.9260001 -18 -49.457802
3.5910001 -18 -49.353401
4.256 -18 -49.436199
4.921 -18 -48.943001
5.586 -18 -48.7234
6.2509999 -18 -48.9664
6.9159999 -18 -48.946602
7.5809999 -18 -48.759399
8.2460003 -18 -48.242802
8.9110003 -18 -48.448002
9.5760002 -18 -48.421001
10.241 -18 -48.304001
10.906 -18 -48.523602
11.571 -18 -48.507401
12.236 -18 -48.1744
12.901 -18 -48.318401
13.566 -18 -48.055599
14.231 -18 -48.030399
14.896 -18 -47.996201
15.561 -18 -47.832401
16.226 -18 -48.105999
16.891001 -18 -48.1348
17.556 -18 -48.170799
18.221001 -18 -48.320202
18.886 -18 -48.278801
19.551001 -18 -48.005199
20.216 -18 -47.877399
20.881001 -18 -47.702801
21.546 -18 -47.862999
22.211 -18 -47.884602
22.875999 -18 -47.9044
23.541 -18 -48.341801
24.205999 -18 -48.163601
24.871 -18 -47.848598
25.535999 -18 -47.744202
26.201 -18 -47.6992
26.865999 -18 -47.639801
27.531 -18 -47.740601
28.195999 -18 -47.513802
28.861 -18 -47.805401
29.525999 -18 -47.6632
30.191 -18 -47.556999
30.856001 -18 -47.575001
31.521 -18 -48.194199
32.186001 -18 -47.98
32.851002 -18 -48.361599
33.515999 -18 -48.113201
34.181 -18 -48.080799
34.846001 -18 -48.010601
35.511002 -18 -48.125801
36.175999 -18 -48.273399
36.841 -18 -48.4426
37.506001 -18 -48.6334
38.171001 -18 -48.654999
38.835999 -18 -48.987999
39.500999 -18 -49.014999
40.166 -18 -49.214802
40.831001 -18 -49.626999
41.495998 -18 -49.3498
42.160999 -18 -49.842999
42.826 -18 -49.7962
43.491001 -18 -49.909599
44.155998 -18 -50.139999
44.820999 -18 -50.1022
45.486 -18 -50.8204
46.151001 -18 -50.867199
46.816002 -18 -51.837399
47.480999 -18 -53.1982
48.146 -18 -53.8372
48.811001 -18 -54.366402
49.476002 -18 -54.965801
50.140999 -18 -55.5112
50.806 -18 -56.3284
51.471001 -18 -56.818001
52.136002 -18 -57.574001
52.800999 -18 -57.694599
53.466 -18 -58.230999
54.131001 -18 -58.393002
54.796001 -18 -58.767399
55.460999 -18 -59.098598
56.125999 -18 -59.455002
56.791 -18 -59.719601
57.456001 -18 -60.007599
58.120998 -18 -60.200199
58.785999 -18 -60.207401
59.451 -18 -60.7906
60.116001 -18 -61.5466
60.780998 -18 -62.230598
61.445999 -18 -63.1558
62.111 -18 -64.046799
62.776001 -18 -65.036797
63.441002 -18 -65.998001
64.106003 -18 -67.054604
64.771004 -18 -inf
65.435997 -18 -inf
66.100998 -18 -inf
66.765999 -18 -inf
67.431 -18 -inf
68.096001 -18 -inf
68.761002 -18 -inf
-50.938999 -17.280001 -inf
-50.273998 -17.280001 -inf
-49.609001 -17.280001 -inf
-48.944 -17.280001 -inf
-48.278999 -17.280001 -inf
-47.613998 -17.280001 -inf
-46.949001 -17.280001 -inf
-46.284 -17.280001 -inf
-45.618999 -17.280001 -73.302399
-44.953999 -17.280001 -72.265602
-44.289001 -17.280001 -71.000198
-43.624001 -17.280001 -69.950798
-42.959 -17.280001 -69.178596
-42.293999 -17.280001 -68.303802
-41.629002 -17.280001 -67.794403
-40.964001 -17.280001 -66.910599
-40.299 -17.280001 -65.9692
-39.633999 -17.280001 -65.146599
-38.969002 -17.280001 -64.264603
-38.304001 -17.280001 -63.614799
-37.639 -17.280001 -62.907398
-36.973999 -17.280001 -62.430401
-36.308998 -17.280001 -61.985802
-35.644001 -17.280001 -61.287399
-34.979 -17.280001 -60.6628
-34.313999 -17.280001 -60.198399
-33.648998 -17.280001 -60.1012
-32.984001 -17.280001 -59.582802
-32.319 -17.280001 -59.354198
-31.653999 -17.280001 -58.970798
-30.989 -17.280001 -58.585602
-30.323999 -17.280001 -58.342602
-29.659 -17.280001 -58.000599
-28.993999 -17.280001 -57.806198
-28.329 -17.280001 -57.498402
-27.664 -17.280001 -57.368801
-26.999001 -17.280001 -57.332802
-26.334 -17.280001 -57.2896
-25.669001 -17.280001 -56.785599
-25.004 -17.280001 -56.8396
-24.339001 -17.280001 -56.310398
-23.674 -17.280001 -56.283401
-23.009001 -17.280001 -56.105202
-22.344 -17.280001 -55.649799
-21.679001 -17.280001 -55.577801
-21.014 -17.280001 -55.286201
-20.349001 -17.280001 -54.854198
-19.684 -17.280001 -54.647202
-19.018999 -17.280001 -54.4492
-18.354 -17.280001 -54.353802
-17.688999 -17.280001 -54.063999
-17.024 -17.280001 -54.089199
-16.358999 -17.280001 -53.9254
-15.694 -17.280001 -53.090199
-15.029 -17.280001 -53.216202
-14.364 -17.280001 -53.091999
-13.699 -17.280001 -52.721199
-13.034 -17.280001 -52.719398
-12.369 -17.280001 -52.847198
-11.704 -17.280001 -53.007401
-11.039 -17.280001 -52.510601
-10.374 -17.280001 -52.465599
-9.7089996 -17.280001 -52.472801
-9.0439997 -17.280001 -52.255001
-8.3789997 -17.280001 -52.145199
-7.7140002 -17.280001 -51.862598
-7.0489998 -17.280001 -51.513401
-6.3839998 -17.280001 -51.776199
-5.7189999 -17.280001 -51.131802
-5.0539999 -17.280001 -50.957199
-4.3889999 -17.280001 -50.647598
-3.724 -17.280001 -50.6026
-3.059 -17.280001 -50.606201
-2.3940001 -17.280001 -50.669201
-1.729 -17.280001 -50.433399
-1.064 -17.280001 -50.185001
-0.39899999 -17.280001 -50.174198
0.266 -17.280001 -49.628799
0.93099999 -17.280001 -49.481201
1.596 -17.280001 -49.175201
2.2609999 -17.280001 -49.398399
2.9260001 -17.280001 -49.375
3.5910001 -17.280001 -49.229198
4.256 -17.280001 -49.006001
4.921 -17.280001 -49.1572
5.586 -17.280001 -49.245399
6.2509999 -17.280001 -48.807999
6.9159999 -17.280001 -48.307598
7.5809999 -17.280001 -48.334599
8.2460003 -17.280001 -48.43
8.9110003 -17.280001 -48.669399
9.5760002 -17.280001 -48.514599
10.241 -17.280001 -48.3508
10.906 -17.280001 -48.577599
11.571 -17.280001 -48.485802
12.236 -17.280001 -48.253601
12.901 -17.280001 -48.419201
13.566 -17.280001 -48.446201
14.231 -17.280001 -48.556
14.896 -17.280001 -48.703602
15.561 -17.280001 -48.4678
16.226 -17.280001 -48.687401
16.891001 -17.280001 -48.493
17.556 -17.280001 -48.566799
18.221001 -17.280001 -48.638802
18.886 -17.280001 -48.512798
19.551001 -17.280001 -48.347198
20.216 -17.280001 -47.9818
20.881001 -17.280001 -47.681198
21.546 -17.280001 -47.925999
22.211 -17.280001 -47.7388
22.875999 -17.280001 -47.677601
23.541 -17.280001 -48.017799
24.205999 -17.280001 -47.947601
24.871 -17.280001 -47.783798
25.535999 -17.280001 -47.898998
26.201 -17.280001 -47.812599
26.865999 -17.280001 -47.8936
27.531 -17.280001 -47.834202
28.195999 -17.280001 -47.812599
28.861 -17.280001 -47.772999
29.525999 -17.280001 -47.6614
30.191 -17.280001 -47.733398
30.856001 -17.280001 -47.8036
31.521 -17.280001 -47.962002
32.186001 -17.280001 -47.888199
32.851002 -17.280001 -48.152802
33.515999 -17.280001 -48.015999
34.181 -17.280001 -48.098801
34.846001 -17.280001 -48.223
35.511002 -17.280001 -48.152802
36.175999 -17.280001 -48.4804
36.841 -17.280001 -48.860199
37.506001 -17.280001 -48.8638
38.171001 -17.280001 -48.438999
38.835999 -17.280001 -48.9772
39.500999 -17.280001 -49.139198
40.166 -17.280001 -49.203999
40.831001 -17.280001 -49.531601
41.495998 -17.280001 -49.276001
42.160999 -17.280001 -49.576599
42.826 -17.280001 -49.636002
43.491001 -17.280001 -49.904202
44.155998 -17.280001 -50.267799
44.820999 -17.280001 -50.170601
45.486 -17.280001 -50.778999
46.151001 -17.280001 -51.106602
46.816002 -17.280001 -52.400799
47.480999 -17.280001 -53.187401
48.146 -17.280001 -53.6572
48.811001 -17.280001 -54.330399
49.476002 -17.280001 -54.8344
50.140999 -17.280001 -55.341999
50.806 -17.280001 -56.1124
51.471001 -17.280001 -57.030399
52.136002 -17.280001 -57.550598
52.800999 -17.280001 -57.854801
53.466 -17.280001 -58.214802
54.131001 -17.280001 -58.418201
54.796001 -17.280001 -58.7332
55.460999 -17.280001 -59.084202
56.125999 -17.280001 -59.301998
56.791 -17.280001 -59.787998
57.456001 -17.280001 -60.0112
58.120998 -17.280001 -60.221802
58.785999 -17.280001 -60.5746
59.451 -17.280001 -61.094799
60.116001 -17.280001 -61.688801
60.780998 -17.280001 -62.457401
61.445999 -17.280001 -63.337601
62.111 -17.280001 -64.0756
62.776001 -17.280001 -64.890999
63.441002 -17.280001 -65.774803
64.106003 -17.280001 -66.6064
64.771004 -17.280001 -inf
65.435997 -17.280001 -inf
66.100998 -17.280001 -inf
66.765999 -17.280001 -inf
67.431 -17.280001 -inf
68.096001 -17.280001 -inf
68.761002 -17.280001 -inf
-50.938999 -16.559999 -inf
-50.273998 -16.559999 -inf
-49.609001 -16.559999 -inf
-48.944 -16.559999 -inf
-48.278999 -16.559999 -inf
-47.613998 -16.559999 -inf
-46.949001 -16.559999 -inf
-46.284 -16.559999 -inf
-45.618999 -16.559999 -inf
-44.953999 -16.559999 -72.857803
-44.289001 -16.559999 -71.264801
-43.624001 -16.559999 -70.362999
-42.959 -16.559999 -69.209198
-42.293999 -16.559999 -68.267799
-41.629002 -16.559999 -67.718803
-40.964001 -16.559999 -67.1968
-40.299 -16.559999 -66.233803
-39.633999 -16.559999 -65.452599
-38.969002 -16.559999 -64.455399
-38.304001 -16.559999 -63.801998
-37.639 -16.559999 -63.164799
-36.973999 -16.559999 -62.630199
-36.308998 -16.559999 -62.0956
-35.644001 -16.559999 -61.445801
-34.979 -16.559999 -60.7402
-34.313999 -16.559999 -60.373001
-33.648998 -16.559999 -60.005798
-32.984001 -16.559999 -59.836601
-32.319 -16.559999 -59.292999
-31.653999 -16.559999 -58.920399
-30.989 -16.559999 -58.6936
-30.323999 -16.559999 -58.398399
-29.659 -16.559999 -58.036598
-28.993999 -16.559999 -57.4678
-28.329 -16.559999 -57.370602
-27.664 -16.559999 -57.712601
-26.999001 -16.559999 -57.156399
-26.334 -16.559999 -56.925999
-25.669001 -16.559999 -56.672199
-25.004 -16.559999 -56.744202
-24.339001 -16.559999 -56.348202
-23.674 -16.559999 -56.0116
-23.009001 -16.559999 -55.633598
-22.344 -16.559999 -55.657001
-21.679001 -16.559999 -55.559799
-21.014 -16.559999 -55.1422
-20.349001 -16.559999 -54.958599
-19.684 -16.559999 -54.405998
-19.018999 -16.559999 -54.452801
-18.354 -16.559999 -54.2854
-17.688999 -16.559999 -53.659
-17.024 -16.559999 -54.197201
-16.358999 -16.559999 -53.612202
-15.694 -16.559999 -53.640999
-15.029 -16.559999 -52.8022
-14.364 -16.559999 -52.7356
-13.699 -16.559999 -52.413399
-13.034 -16.559999 -52.627602
-12.369 -16.559999 -52.6852
-11.704 -16.559999 -52.926399
-11.039 -16.559999 -53.034401
-10.374 -16.559999 -52.7644
-9.7089996 -16.559999 -52.794998
-9.0439997 -16.559999 -52.417
-8.3789997 -16.559999 -52.028198
-7.7140002 -16.559999 -51.947201
-7.0489998 -16.559999 -51.448601
-6.3839998 -16.559999 -51.295601
-5.7189999 -16.559999 -51.043598
-5.0539999 -16.559999 -50.849201
-4.3889999 -16.559999 -50.5774
-3.724 -16.559999 -50.694401
-3.059 -16.559999 -51.117401
-2.3940001 -16.559999 -50.437
-1.729 -16.559999 -50.379398
-1.064 -16.559999 -50.3578
-0.39899999 -16.559999 -50.046398
0.266 -16.559999 -49.4776
0.93099999 -16.559999 -49.965401
1.596 -16.559999 -49.673801
2.2609999 -16.559999 -49.295799
2.9260001 -16.559999 -49.8484
3.5910001 -16.559999 -49.230999
4.256 -16.559999 -48.804401
4.921 -16.559999 -49.0438
5.586 -16.559999 -48.741402
6.2509999 -16.559999 -48.521801
6.9159999 -16.559999 -48.5452
7.5809999 -16.559999 -47.873798
8.2460003 -16.559999 -48.590199
8.9110003 -16.559999 -48.611801
9.5760002 -16.559999 -48.547001
10.241 -16.559999 -48.577599
10.906 -16.559999 -48.528999
11.571 -16.559999 -48.673
12.236 -16.559999 -48.323799
12.901 -16.559999 -48.474998
13.566 -16.559999 -48.591999
14.231 -16.559999 -48.591999
14.896 -16.559999 -48.717999
15.561 -16.559999 -48.654999
16.226 -16.559999 -48.894402
16.891001 -16.559999 -48.676601
17.556 -16.559999 -48.818802
18.221001 -16.559999 -48.674801
18.886 -16.559999 -48.709
19.551001 -16.559999 -48.509201
20.216 -16.559999 -48.291401
20.881001 -16.559999 -47.913399
21.546 -16.559999 -47.729801
22.211 -16.559999 -47.818001
22.875999 -16.559999 -47.767601
23.541 -16.559999 -47.886398
24.205999 -16.559999 -48.118599
24.871 -16.559999 -47.990799
25.535999 -16.559999 -47.985401
26.201 -16.559999 -47.909801
26.865999 -16.559999 -47.898998
27.531 -16.559999 -47.873798
28.195999 -16.559999 -48.048401
28.861 -16.559999 -48.0574
29.525999 -16.559999 -48.127602
30.191 -16.559999 -48.048401
30.856001 -16.559999 -48.086201
31.521 -16.559999 -48.030399
32.186001 -16.559999 -48.228401
32.851002 -16.559999 -48.078999
33.515999 -16.559999 -47.857601
34.181 -16.559999 -48.170799
34.846001 -16.559999 -47.877399
35.511002 -16.559999 -48.0448
36.175999 -16.559999 -48.359798
36.841 -16.559999 -48.6082
37.506001 -16.559999 -49.0564
38.171001 -16.559999 -48.845798
38.835999 -16.559999 -48.9268
39.500999 -16.559999 -49.175201
40.166 -16.559999 -49.230999
40.831001 -16.559999 -49.405602
41.495998 -16.559999 -49.252602
42.160999 -16.559999 -49.402
42.826 -16.559999 -49.769199
43.491001 -16.559999 -49.798
44.155998 -16.559999 -50.042801
44.820999 -16.559999 -50.208401
45.486 -16.559999 -50.975201
46.151001 -16.559999 -51.4594
46.816002 -16.559999 -52.496201
47.480999 -16.559999 -53.244999
48.146 -16.559999 -53.781399
48.811001 -16.559999 -54.667
49.476002 -16.559999 -55.093601
50.140999 -16.559999 -55.3078
50.806 -16.559999 -56.123199
51.471001 -16.559999 -57.268002
52.136002 -16.559999 -57.509201
52.800999 -16.559999 -57.9286
53.466 -16.559999 -58.173401
54.131001 -16.559999 -58.317402
54.796001 -16.559999 -58.598202
55.460999 -16.559999 -58.877201
56.125999 -16.559999 -59.541401
56.791 -16.559999 -59.959
57.456001 -16.559999 -60.441399
58.120998 -16.559999 -60.2686
58.785999 -16.559999 -60.833801
59.451 -16.559999 -61.5196
60.116001 -16.559999 -62.0308
60.780998 -16.559999 -62.723801
61.445999 -16.559999 -63.459999
62.111 -16.559999 -64.143997
62.776001 -16.559999 -64.873001
63.441002 -16.559999 -65.954803
64.106003 -16.559999 -66.559601
64.771004 -16.559999 -inf
65.435997 -16.559999 -inf
66.100998 -16.559999 -inf
66.765999 -16.559999 -inf
67.431 -16.559999 -inf
68.096001 -16.559999 -inf
68.761002 -16.559999 -inf
-50.938999 -15.84 -inf
-50.273998 -15.84 -inf
-49.609001 -15.84 -inf
-48.944 -15.84 -inf
-48.278999 -15.84 -inf
-47.613998 -15.84 -inf
-46.949001 -15.84 -inf
-46.284 -15.84 -inf
-45.618999 -15.84 -inf
-44.953999 -15.84 -73.369003
-44.289001 -15.84 -71.545601
-43.624001 -15.84 -70.710403
-42.959 -15.84 -69.313599
-42.293999 -15.84 -68.442398
-41.629002 -15.84 -67.690002
