# .PCD v0.7 - Point Cloud Data file format
VERSION 0.7
FIELDS x y z
SIZE 4 4 4
TYPE F F F
COUNT 1 1 1
WIDTH 1805
HEIGHT 1
VIEWPOINT 0 0 0 1 0 0 0
POINTS 1805
DATA ascii
-20.216 18 -46.450001
-19.551001 18 -46.396
-18.886 18 -46.502201
-18.221001 18 -45.945999
-17.556 18 -46.297001
-16.891001 18 -45.733601
-16.226 18 -45.404202
-15.561 18 -45.0784
-14.896 18 -45.1054
-14.231 18 -45.226002
-13.566 18 -45.299801
-12.901 18 -45.024399
-12.236 18 -44.8606
-11.571 18 -44.498798
-10.906 18 -44.5924
-10.241 18 -44.815601
-9.5760002 18 -44.102798
-8.9110003 18 -44.118999
-8.2460003 18 -44.090199
-7.5809999 18 -43.895802
-6.9159999 18 -43.692402
-6.2509999 18 -43.7356
-5.586 18 -44.126202
-4.921 18 -44.345798
-4.256 18 -44.522202
-3.5910001 18 -44.552799
-2.9260001 18 -44.059601
-2.2609999 18 -43.741001
-1.596 18 -43.681599
-0.93099999 18 -43.044399
-0.266 18 -43.296398
0.39899999 18 -43.031799
1.064 18 -42.412601
1.729 18 -42.000401
2.3940001 18 -42.295601
3.059 18 -inf
3.724 18 -42.353199
4.3889999 18 -42.810398
5.0539999 18 -inf
5.7189999 18 -43.024601
6.3839998 18 -43.444
7.0489998 18 -43.3018
7.7140002 18 -43.215401
8.3789997 18 -43.015598
9.0439997 18 -42.621399
9.7089996 18 -42.378399
10.374 18 -42.527802
11.039 18 -42.027401
11.704 18 -42.029202
12.369 18 -41.707001
13.034 18 -41.4874
13.699 18 -42.335201
14.364 18 -42.218201
15.029 18 -43.028198
15.694 18 -43.0588
16.358999 18 -43.130798
17.024 18 -43.209999
17.688999 18 -42.821201
18.354 18 -42.952599
19.018999 18 -42.961601
19.684 18 -43.051601
20.349001 18 -43.318001
21.014 18 -43.996601
21.679001 18 -43.847198
22.344 18 -43.6744
23.009001 18 -44.263
23.674 18 -44.632
24.339001 18 -44.597801
25.004 18 -44.875
25.669001 18 -45.101799
26.334 18 -45.3106
26.999001 18 -45.685001
27.664 18 -45.964001
28.329 18 -46.3438
28.993999 18 -46.406799
29.659 18 -46.698399
30.323999 18 -47.094398
30.989 18 -47.584
31.653999 18 -47.772999
32.319 18 -47.830601
32.984001 18 -48.673
33.648998 18 -48.476799
34.313999 18 -49.121201
34.979 18 -49.241798
35.644001 18 -49.774601
36.308998 18 -49.790798
36.973999 18 -50.080601
37.639 18 -50.481998
38.304001 18 -50.840199
38.969002 18 -51.273998
39.633999 18 -51.594398
40.299 18 -52.037201
40.964001 18 -52.505199
41.629002 18 -53.077599
42.293999 18 -53.419601
42.959 18 -53.754398
43.624001 18 -54.510399
44.289001 18 -55.057598
44.953999 18 -55.239399
45.618999 18 -55.493198
46.284 18 -55.873001
46.949001 18 -56.988998
47.613998 18 -57.7342
48.278999 18 -58.202202
48.944 18 -58.691799
49.609001 18 -58.828602
50.273998 18 -59.075199
50.938999 18 -59.750198
51.604 18 -60.4576
52.269001 18 -61.305401
52.933998 18 -61.809399
53.598999 18 -62.079399
54.264 18 -62.088402
54.929001 18 -62.4772
55.594002 18 -62.473598
56.258999 18 -62.770599
56.924 18 -62.9002
57.589001 18 -63.099998
58.254002 18 -62.918201
58.918999 18 -62.871399
59.584 18 -62.676998
60.249001 18 -62.118999
60.914001 18 -62.131599
61.578999 18 -61.973202
62.243999 18 -62.1064
62.909 18 -62.187401
63.574001 18 -61.888599
64.238998 18 -61.503399
64.903999 18 -61.829201
65.569 18 -62.072201
66.234001 18 -61.208199
66.899002 18 -61.319801
67.564003 18 -61.440399
68.228996 18 -61.204601
68.893997 18 -61.184799
69.558998 18 -60.895
70.223999 18 -60.684399
70.889 18 -60.288399
71.554001 18 -59.653
72.219002 18 -59.986
72.884003 18 -62.673401
73.549004 18 -62.6572
74.213997 18 -63.73
74.878998 18 -63.8848
75.543999 18 -64.660599
76.209 18 -65.5606
76.874001 18 -inf
77.539001 18 -inf
78.204002 18 -inf
78.869003 18 -inf
79.533997 18 -inf
80.198997 18 -inf
80.863998 18 -inf
81.528999 18 -inf
82.194 18 -inf
82.859001 18 -inf
-57.456001 18.719999 -inf
-56.791 18.719999 -inf
-56.125999 18.719999 -inf
-55.460999 18.719999 -inf
-54.796001 18.719999 -inf
-54.131001 18.719999 -inf
-53.466 18.719999 -inf
-52.800999 18.719999 -inf
-52.136002 18.719999 -inf
-51.471001 18.719999 -inf
-50.806 18.719999 -inf
-50.140999 18.719999 -inf
-49.476002 18.719999 -inf
-48.811001 18.719999 -inf
-48.146 18.719999 -inf
-47.480999 18.719999 -57.104198
-46.816002 18.719999 -56.083599
-46.151001 18.719999 -55.368999
-45.486 18.719999 -54.648998
-44.820999 18.719999 -54.123402
-44.155998 18.719999 -53.484402
-43.491001 18.719999 -53.118999
-42.826 18.719999 -53.455601
-42.160999 18.719999 -53.047001
-41.495998 18.719999 -52.368401
-40.831001 18.719999 -51.8032
-40.166 18.719999 -51.526001
-39.500999 18.719999 -50.841999
-38.835999 18.719999 -50.3092
-38.171001 18.719999 -50.010399
-37.506001 18.719999 -49.6558
-36.841 18.719999 -49.419998
-36.175999 18.719999 -49.0924
-35.511002 18.719999 -48.9268
-34.846001 18.719999 -48.826
-34.181 18.719999 -49.198601
-33.515999 18.719999 -48.869202
-32.851002 18.719999 -48.957401
-32.186001 18.719999 -48.755798
-31.521 18.719999 -48.446201
-30.856001 18.719999 -48.321999
-30.191 18.719999 -48.0448
-29.525999 18.719999 -48.012402
-28.861 18.719999 -47.872002
-28.195999 18.719999 -47.697399
-27.531 18.719999 -47.7514
-26.865999 18.719999 -47.549801
-26.201 18.719999 -47.400398
-25.535999 18.719999 -47.146599
-24.871 18.719999 -47.191601
-24.205999 18.719999 -47.308601
-23.541 18.719999 -47.274399
-22.875999 18.719999 -46.827999
-22.211 18.719999 -46.4842
-21.546 18.719999 -46.309601
-20.881001 18.719999 -46.6408
-20.216 18.719999 -46.592201
-19.551001 18.719999 -46.549
-18.886 18.719999 -46.306
-18.221001 18.719999 -46.509399
-17.556 18.719999 -46.486
-16.891001 18.719999 -45.549999
-16.226 18.719999 -45.929798
-15.561 18.719999 -45.7948
-14.896 18.719999 -45.405998
-14.231 18.719999 -45.443802
-13.566 18.719999 -45.481602
-12.901 18.719999 -44.830002
-12.236 18.719999 -44.8624
-11.571 18.719999 -44.902
-10.906 18.719999 -44.450199
-10.241 18.719999 -44.640999
-9.5760002 18.719999 -44.4772
-8.9110003 18.719999 -44.244999
-8.2460003 18.719999 -44.254002
-7.5809999 18.719999 -44.011002
-6.9159999 18.719999 -43.7878
-6.2509999 18.719999 -44.009201
-5.586 18.719999 -44.416
-4.921 18.719999 -44.749001
-4.256 18.719999 -44.700401
-3.5910001 18.719999 -44.730999
-2.9260001 18.719999 -44.266602
-2.2609999 18.719999 -43.758999
-1.596 18.719999 -43.616798
-0.93099999 18.719999 -42.7672
-0.266 18.719999 -42.958
0.39899999 18.719999 -42.580002
1.064 18.719999 -42.333401
1.729 18.719999 -41.919399
2.3940001 18.719999 -42.1012
3.059 18.719999 -42.239799
3.724 18.719999 -42.376598
4.3889999 18.719999 -42.608799
5.0539999 18.719999 -42.747398
5.7189999 18.719999 -42.841
6.3839998 18.719999 -43.1884
7.0489998 18.719999 -43.539398
7.7140002 18.719999 -43.282001
8.3789997 18.719999 -43.116402
9.0439997 18.719999 -42.543999
9.7089996 18.719999 -42.4342
10.374 18.719999 -42.578201
11.039 18.719999 -42.1912
11.704 18.719999 -42.1768
12.369 18.719999 -42.187599
13.034 18.719999 -42.057999
13.699 18.719999 -42.400002
14.364 18.719999 -42.8806
15.029 18.719999 -43.1092
15.694 18.719999 -43.354
16.358999 18.719999 -43.296398
17.024 18.719999 -43.4296
17.688999 18.719999 -42.570999
18.354 18.719999 -42.504398
19.018999 18.719999 -42.801399
19.684 18.719999 -43.57
20.349001 18.719999 -43.471001
21.014 18.719999 -43.66
21.679001 18.719999 -44.358398
22.344 18.719999 -44.329601
23.009001 18.719999 -44.241402
23.674 18.719999 -44.307999
24.339001 18.719999 -44.470001
25.004 18.719999 -44.8624
25.669001 18.719999 -44.738201
26.334 18.719999 -45.260201
26.999001 18.719999 -45.541
27.664 18.719999 -46.136799
28.329 18.719999 -46.095402
28.993999 18.719999 -46.198002
29.659 18.719999 -46.802799
30.323999 18.719999 -47.2654
30.989 18.719999 -47.357201
31.653999 18.719999 -48.187
32.319 18.719999 -48.2374
32.984001 18.719999 -48.676601
33.648998 18.719999 -48.763
34.313999 18.719999 -49.265202
34.979 18.719999 -49.033001
35.644001 18.719999 -50.0392
36.308998 18.719999 -49.8088
36.973999 18.719999 -50.300201
37.639 18.719999 -50.669201
38.304001 18.719999 -51.0886
38.969002 18.719999 -51.193001
39.633999 18.719999 -51.5728
40.299 18.719999 -52.107399
40.964001 18.719999 -52.6492
41.629002 18.719999 -53.154999
42.293999 18.719999 -53.533001
42.959 18.719999 -53.718399
43.624001 18.719999 -54.4006
44.289001 18.719999 -54.839802
44.953999 18.719999 -55.041401
45.618999 18.719999 -55.6786
46.284 18.719999 -56.305
46.949001 18.719999 -57.4174
47.613998 18.719999 -57.644199
48.278999 18.719999 -58.292198
48.944 18.719999 -58.3228
49.609001 18.719999 -59.104
50.273998 18.719999 -59.941002
50.938999 18.719999 -60.146198
51.604 18.719999 -60.734798
52.269001 18.719999 -61.253201
52.933998 18.719999 -61.994801
53.598999 18.719999 -62.187401
54.264 18.719999 -62.191002
54.929001 18.719999 -62.495201
55.594002 18.719999 -62.385399
56.258999 18.719999 -62.725601
56.924 18.719999 -62.968601
57.589001 18.719999 -62.686001
58.254002 18.719999 -62.9632
58.918999 18.719999 -62.768799
59.584 18.719999 -62.655399
60.249001 18.719999 -62.225201
60.914001 18.719999 -62.122601
61.578999 18.719999 -62.104599
62.243999 18.719999 -62.167599
62.909 18.719999 -62.028999
63.574001 18.719999 -61.901199
64.238998 18.719999 -61.658199
64.903999 18.719999 -61.832802
65.569 18.719999 -61.7626
66.234001 18.719999 -61.209999
66.899002 18.719999 -60.922001
67.564003 18.719999 -60.711399
68.228996 18.719999 -60.644798
68.893997 18.719999 -61.021
69.558998 18.719999 -60.886002
70.223999 18.719999 -60.769001
70.889 18.719999 -60.781601
71.554001 18.719999 -61.658199
72.219002 18.719999 -62.7328
72.884003 18.719999 -63.391602
73.549004 18.719999 -64.350998
74.213997 18.719999 -65.213203
74.878998 18.719999 -65.488602
75.543999 18.719999 -67.940201
76.209 18.719999 -inf
76.874001 18.719999 -inf
77.539001 18.719999 -inf
78.204002 18.719999 -inf
78.869003 18.719999 -inf
79.533997 18.719999 -inf
80.198997 18.719999 -inf
80.863998 18.719999 -inf
81.528999 18.719999 -inf
82.194 18.719999 -inf
82.859001 18.719999 -inf
-57.456001 19.440001 -inf
-56.791 19.440001 -inf
-56.125999 19.440001 -inf
-55.460999 19.440001 -inf
-54.796001 19.440001 -inf
-54.131001 19.440001 -inf
-53.466 19.440001 -inf
-52.800999 19.440001 -inf
-52.136002 19.440001 -inf
-51.471001 19.440001 -inf
-50.806 19.440001 -inf
-50.140999 19.440001 -inf
-49.476002 19.440001 -inf
-48.811001 19.440001 -inf
-48.146 19.440001 -inf
-47.480999 19.440001 -56.758598
-46.816002 19.440001 -55.964802
-46.151001 19.440001 -55.4338
-45.486 19.440001 -54.7318
-44.820999 19.440001 -54.153999
-44.155998 19.440001 -53.297199
-43.491001 19.440001 -53.299
-42.826 19.440001 -52.748199
-42.160999 19.440001 -52.285599
-41.495998 19.440001 -52.119999
-40.831001 19.440001 -52.354
-40.166 19.440001 -51.671799
-39.500999 19.440001 -50.982399
-38.835999 19.440001 -50.41
-38.171001 19.440001 -50.0788
-37.506001 19.440001 -50.006802
-36.841 19.440001 -49.351601
-36.175999 19.440001 -48.9286
-35.511002 19.440001 -48.9664
-34.846001 19.440001 -48.694599
-34.181 19.440001 -49.063599
-33.515999 19.440001 -48.817001
-32.851002 19.440001 -48.878201
-32.186001 19.440001 -48.725201
-31.521 19.440001 -48.561401
-30.856001 19.440001 -48.282398
-30.191 19.440001 -48.062801
-29.525999 19.440001 -48.1474
-28.861 19.440001 -47.9674
-28.195999 19.440001 -47.567799
-27.531 19.440001 -47.614601
-26.865999 19.440001 -47.339199
-26.201 19.440001 -47.274399
-25.535999 19.440001 -47.2528
-24.871 19.440001 -46.936001
-24.205999 19.440001 -46.815399
-23.541 19.440001 -46.8694
-22.875999 19.440001 -47.0098
-22.211 19.440001 -46.885601
-21.546 19.440001 -46.426601
-20.881001 19.440001 -46.6408
-20.216 19.440001 -46.6786
-19.551001 19.440001 -46.606602
-18.886 19.440001 -46.482399
-18.221001 19.440001 -46.504002
-17.556 19.440001 -46.134998
-16.891001 19.440001 -45.902802
-16.226 19.440001 -46.019798
-15.561 19.440001 -46.091801
-14.896 19.440001 -45.648998
-14.231 19.440001 -45.595001
-13.566 19.440001 -45.4492
-12.901 19.440001 -45.366402
-12.236 19.440001 -45.101799
-11.571 19.440001 -44.866001
-10.906 19.440001 -44.569
-10.241 19.440001 -44.678799
-9.5760002 19.440001 -44.572601
-8.9110003 19.440001 -44.410599
-8.2460003 19.440001 -44.2216
-7.5809999 19.440001 -44.201801
-6.9159999 19.440001 -44.396198
-6.2509999 19.440001 -44.1712
-5.586 19.440001 -44.637402
-4.921 19.440001 -44.7724
-4.256 19.440001 -44.653599
-3.5910001 19.440001 -44.462799
-2.9260001 19.440001 -44.0434
-2.2609999 19.440001 -43.377399
-1.596 19.440001 -43.319801
-0.93099999 19.440001 -42.886002
-0.266 19.440001 -42.974201
0.39899999 19.440001 -42.686199
1.064 19.440001 -42.146198
1.729 19.440001 -42.236198
2.3940001 19.440001 -42.437801
3.059 19.440001 -42.788799
3.724 19.440001 -42.529598
4.3889999 19.440001 -42.630402
5.0539999 19.440001 -42.538601
5.7189999 19.440001 -42.551201
6.3839998 19.440001 -42.592602
7.0489998 19.440001 -43.202801
7.7140002 19.440001 -43.3144
8.3789997 19.440001 -43.384602
9.0439997 19.440001 -42.961601
9.7089996 19.440001 -42.808601
10.374 19.440001 -42.686199
11.039 19.440001 -42.535
11.704 19.440001 -42.273998
12.369 19.440001 -42.333401
13.034 19.440001 -42.0634
13.699 19.440001 -42.221802
14.364 19.440001 -42.4216
15.029 19.440001 -43.010201
15.694 19.440001 -43.2658
16.358999 19.440001 -43.283798
17.024 19.440001 -43.588001
17.688999 19.440001 -43.235199
18.354 19.440001 -42.923801
19.018999 19.440001 -43.217201
19.684 19.440001 -43.438599
20.349001 19.440001 -43.706799
21.014 19.440001 -43.9174
21.679001 19.440001 -43.868801
22.344 19.440001 -44.126202
23.009001 19.440001 -44.417801
23.674 19.440001 -44.263
24.339001 19.440001 -44.487999
25.004 19.440001 -44.6464
25.669001 19.440001 -45.3592
26.334 19.440001 -45.533798
26.999001 19.440001 -45.611198
27.664 19.440001 -46.082802
28.329 19.440001 -46.055801
28.993999 19.440001 -46.097198
29.659 19.440001 -46.950401
30.323999 19.440001 -46.928799
30.989 19.440001 -47.556999
31.653999 19.440001 -47.9944
32.319 19.440001 -48.208599
32.984001 19.440001 -48.725201
33.648998 19.440001 -48.892601
34.313999 19.440001 -49.128399
34.979 19.440001 -49.4272
35.644001 19.440001 -49.628799
36.308998 19.440001 -50.044601
36.973999 19.440001 -50.3344
37.639 19.440001 -50.681801
38.304001 19.440001 -50.937401
38.969002 19.440001 -51.319
39.633999 19.440001 -51.745602
40.299 19.440001 -52.229801
40.964001 19.440001 -52.548401
41.629002 19.440001 -52.9804
42.293999 19.440001 -53.255798
42.959 19.440001 -53.938
43.624001 19.440001 -54.659801
44.289001 19.440001 -54.9496
44.953999 19.440001 -55.008999
45.618999 19.440001 -55.745201
46.284 19.440001 -56.490398
46.949001 19.440001 -57.244598
47.613998 19.440001 -57.809799
48.278999 19.440001 -57.948399
48.944 19.440001 -58.511799
49.609001 19.440001 -59.068001
50.273998 19.440001 -60.000401
50.938999 19.440001 -60.468399
51.604 19.440001 -60.563801
52.269001 19.440001 -61.373798
52.933998 19.440001 -61.834599
53.598999 19.440001 -62.237801
54.264 19.440001 -62.250401
54.929001 19.440001 -62.423199
55.594002 19.440001 -62.471802
56.258999 19.440001 -62.756199
56.924 19.440001 -62.703999
57.589001 19.440001 -62.7202
58.254002 19.440001 -62.408798
58.918999 19.440001 -62.4286
59.584 19.440001 -62.340401
60.249001 19.440001 -62.151402
60.914001 19.440001 -61.971401
61.578999 19.440001 -62.131599
62.243999 19.440001 -62.001999
62.909 19.440001 -61.971401
63.574001 19.440001 -61.913799
64.238998 19.440001 -62.129799
64.903999 19.440001 -61.751801
65.569 19.440001 -61.528599
66.234001 19.440001 -61.348598
66.899002 19.440001 -61.067799
67.564003 19.440001 -61.244202
68.228996 19.440001 -60.950802
68.893997 19.440001 -61.118198
69.558998 19.440001 -61.141602
70.223999 19.440001 -61.9678
70.889 19.440001 -62.848
71.554001 19.440001 -63.828999
72.219002 19.440001 -64.129601
72.884003 19.440001 -65.281601
73.549004 19.440001 -65.596603
74.213997 19.440001 -66.370598
74.878998 19.440001 -67.664803
75.543999 19.440001 -inf
76.209 19.440001 -inf
76.874001 19.440001 -inf
77.539001 19.440001 -inf
78.204002 19.440001 -inf
78.869003 19.440001 -inf
79.533997 19.440001 -inf
80.198997 19.440001 -inf
80.863998 19.440001 -inf
81.528999 19.440001 -inf
82.194 19.440001 -inf
82.859001 19.440001 -inf
-57.456001 20.16 -inf
-56.791 20.16 -inf
-56.125999 20.16 -inf
-55.460999 20.16 -inf
-54.796001 20.16 -inf
-54.131001 20.16 -inf
-53.466 20.16 -inf
-52.800999 20.16 -inf
-52.136002 20.16 -inf
-51.471001 20.16 -inf
-50.806 20.16 -inf
-50.140999 20.16 -inf
-49.476002 20.16 -inf
-48.811001 20.16 -inf
-48.146 20.16 -inf
-47.480999 20.16 -inf
-46.816002 20.16 -55.9072
-46.151001 20.16 -55.347401
-45.486 20.16 -54.612999
-44.820999 20.16 -54.119801
-44.155998 20.16 -53.3908
-43.491001 20.16 -53.176601
-42.826 20.16 -52.962399
-42.160999 20.16 -52.539398
-41.495998 20.16 -52.157799
-40.831001 20.16 -51.992199
-40.166 20.16 -51.441399
-39.500999 20.16 -51.092201
-38.835999 20.16 -50.428001
-38.171001 20.16 -50.017601
-37.506001 20.16 -49.308399
-36.841 20.16 -49.202202
-36.175999 20.16 -48.6964
-35.511002 20.16 -48.889
-34.846001 20.16 -48.987999
-34.181 20.16 -49.101398
-33.515999 20.16 -48.885399
-32.851002 20.16 -49.112202
-32.186001 20.16 -48.842201
-31.521 20.16 -48.7612
-30.856001 20.16 -48.293201
-30.191 20.16 -47.8144
-29.525999 20.16 -47.655998
-28.861 20.16 -47.974602
-28.195999 20.16 -47.731602
-27.531 20.16 -47.497601
-26.865999 20.16 -47.602001
-26.201 20.16 -47.233002
-25.535999 20.16 -47.294201
-24.871 20.16 -47.386002
-24.205999 20.16 -47.166401
-23.541 20.16 -47.247398
-22.875999 20.16 -47.056599
-22.211 20.16 -47.171799
-21.546 20.16 -46.819
-20.881001 20.16 -46.7686
-20.216 20.16 -46.720001
-19.551001 20.16 -46.509399
-18.886 20.16 -46.381599
-18.221001 20.16 -46.156601
-17.556 20.16 -46.372601
-16.891001 20.16 -45.893799
-16.226 20.16 -46.185398
-15.561 20.16 -45.893799
-14.896 20.16 -45.600399
-14.231 20.16 -45.956799
-13.566 20.16 -45.478001
-12.901 20.16 -45.281799
-12.236 20.16 -45.118
-11.571 20.16 -45.1306
-10.906 20.16 -45.395199
-10.241 20.16 -45.136002
-9.5760002 20.16 -44.9272
-8.9110003 20.16 -44.678799
-8.2460003 20.16 -44.111801
-7.5809999 20.16 -44.056
-6.9159999 20.16 -44.1712
-6.2509999 20.16 -44.079399
-5.586 20.16 -44.2216
-4.921 20.16 -43.9552
-4.256 20.16 -43.985802
-3.5910001 20.16 -43.894001
-2.9260001 20.16 -43.897598
-2.2609999 20.16 -43.069599
-1.596 20.16 -42.772598
-0.93099999 20.16 -42.783401
-0.266 20.16 -43.258598
0.39899999 20.16 -42.653801
1.064 20.16 -42.4846
1.729 20.16 -inf
2.3940001 20.16 -inf
3.059 20.16 -42.464802
3.724 20.16 -42.383801
4.3889999 20.16 -42.619598
5.0539999 20.16 -42.319
5.7189999 20.16 -42.205601
6.3839998 20.16 -42.027401
7.0489998 20.16 -42.682598
7.7140002 20.16 -42.939999
8.3789997 20.16 -43.215401
9.0439997 20.16 -42.9706
9.7089996 20.16 -42.711399
10.374 20.16 -42.608799
11.039 20.16 -42.5602
11.704 20.16 -42.363998
12.369 20.16 -42.158798
13.034 20.16 -42.104801
13.699 20.16 -42.426998
14.364 20.16 -42.596199
15.029 20.16 -42.9832
15.694 20.16 -43.2658
16.358999 20.16 -43.335999
17.024 20.16 -43.3018
17.688999 20.16 -43.354
18.354 20.16 -43.184799
19.018999 20.16 -43.362999
19.684 20.16 -43.829201
20.349001 20.16 -44.086601
21.014 20.16 -44.137001
21.679001 20.16 -44.307999
22.344 20.16 -44.460999
23.009001 20.16 -44.333199
23.674 20.16 -44.135201
24.339001 20.16 -44.4916
25.004 20.16 -44.702202
25.669001 20.16 -45.267399
26.334 20.16 -45.8092
26.999001 20.16 -45.969398
27.664 20.16 -45.748001
28.329 20.16 -45.902802
28.993999 20.16 -46
29.659 20.16 -46.124199
30.323999 20.16 -47.054798
30.989 20.16 -47.427399
31.653999 20.16 -47.771198
32.319 20.16 -48.379601
32.984001 20.16 -48.8386
33.648998 20.16 -48.642399
34.313999 20.16 -49.598202
34.979 20.16 -49.200401
35.644001 20.16 -49.619801
36.308998 20.16 -49.909599
36.973999 20.16 -50.455002
37.639 20.16 -50.836601
38.304001 20.16 -50.9608
38.969002 20.16 -51.259602
39.633999 20.16 -51.911201
40.299 20.16 -52.319801
40.964001 20.16 -52.625801
41.629002 20.16 -52.676201
42.293999 20.16 -53.506001
42.959 20.16 -53.9254
43.624001 20.16 -54.580601
44.289001 20.16 -55.1674
44.953999 20.16 -55.1674
45.618999 20.16 -55.698399
46.284 20.16 -56.4814
46.949001 20.16 -57.3508
47.613998 20.16 -57.892601
48.278999 20.16 -57.959202
48.944 20.16 -59.1418
49.609001 20.16 -60.043598
50.273998 20.16 -60.283001
50.938999 20.16 -60.580002
51.604 20.16 -60.7384
52.269001 20.16 -61.1632
52.933998 20.16 -61.602402
53.598999 20.16 -62.027199
54.264 20.16 -61.976799
54.929001 20.16 -62.047001
55.594002 20.16 -62.1838
56.258999 20.16 -62.4268
56.924 20.16 -62.689602
57.589001 20.16 -62.777802
58.254002 20.16 -62.7868
58.918999 20.16 -62.2738
59.584 20.16 -62.3494
60.249001 20.16 -61.991199
60.914001 20.16 -62.027199
61.578999 20.16 -61.991199
62.243999 20.16 -62.059601
62.909 20.16 -61.8508
63.574001 20.16 -61.7626
64.238998 20.16 -61.778801
64.903999 20.16 -61.600601
65.569 20.16 -61.370201
66.234001 20.16 -61.535801
66.899002 20.16 -61.632999
67.564003 20.16 -61.514198
68.228996 20.16 -61.768002
68.893997 20.16 -62.2342
69.558998 20.16 -62.6464
70.223999 20.16 -64.658798
70.889 20.16 -65.053001
71.554001 20.16 -65.4058
72.219002 20.16 -65.904404
72.884003 20.16 -66.25
73.549004 20.16 -66.9664
74.213997 20.16 -67.538803
74.878998 20.16 -inf
75.543999 20.16 -inf
76.209 20.16 -inf
76.874001 20.16 -inf
77.539001 20.16 -inf
78.204002 20.16 -inf
78.869003 20.16 -inf
79.533997 20.16 -inf
80.198997 20.16 -inf
80.863998 20.16 -inf
81.528999 20.16 -inf
82.194 20.16 -inf
82.859001 20.16 -inf
-57.456001 20.879999 -inf
-56.791 20.879999 -inf
-56.125999 20.879999 -inf
-55.460999 20.879999 -inf
-54.796001 20.879999 -inf
-54.131001 20.879999 -inf
-53.466 20.879999 -inf
-52.800999 20.879999 -inf
-52.136002 20.879999 -inf
-51.471001 20.879999 -inf
-50.806 20.879999 -inf
-50.140999 20.879999 -inf
-49.476002 20.879999 -inf
-48.811001 20.879999 -inf
-48.146 20.879999 -inf
-47.480999 20.879999 -inf
-46.816002 20.879999 -56.152
-46.151001 20.879999 -55.287998
-45.486 20.879999 -54.582401
-44.820999 20.879999 -54.162998
-44.155998 20.879999 -53.750801
-43.491001 20.879999 -53.4394
-42.826 20.879999 -52.911999
-42.160999 20.879999 -52.6978
-41.495998 20.879999 -52.382801
-40.831001 20.879999 -52.159599
-40.166 20.879999 -51.493599
-39.500999 20.879999 -50.771801
-38.835999 20.879999 -50.350601
-38.171001 20.879999 -50.085999
-37.506001 20.879999 -49.738602
-36.841 20.879999 -49.448799
-36.175999 20.879999 -49.133801
-35.511002 20.879999 -48.833199
-34.846001 20.879999 -48.8242
-34.181 20.879999 -48.847599
-33.515999 20.879999 -48.7756
-32.851002 20.879999 -48.889
-32.186001 20.879999 -48.6712
-31.521 20.879999 -48.6982
-30.856001 20.879999 -48.151001
-30.191 20.879999 -47.8936
-29.525999 20.879999 -47.944
-28.861 20.879999 -47.747799
-28.195999 20.879999 -47.5462
-27.531 20.879999 -47.670399
-26.865999 20.879999 -47.602001
-26.201 20.879999 -47.395
-25.535999 20.879999 -47.409401
-24.871 20.879999 -47.305
-24.205999 20.879999 -47.299599
-23.541 20.879999 -47.231201
-22.875999 20.879999 -47.033199
-22.211 20.879999 -46.975601
-21.546 20.879999 -46.916199
-20.881001 20.879999 -46.827999
-20.216 20.879999 -46.838799
-19.551001 20.879999 -46.6138
-18.886 20.879999 -46.649799
-18.221001 20.879999 -46.183601
-17.556 20.879999 -46.1422
-16.891001 20.879999 -46.149399
-16.226 20.879999 -46.18
-15.561 20.879999 -45.848801
-14.896 20.879999 -45.945999
-14.231 20.879999 -45.920799
-13.566 20.879999 -45.505001
-12.901 20.879999 -45.562599
-12.236 20.879999 -45.672401
-11.571 20.879999 -45.544601
-10.906 20.879999 -45.416801
-10.241 20.879999 -45.1576
-9.5760002 20.879999 -44.9524
-8.9110003 20.879999 -44.711201
-8.2460003 20.879999 -44.156799
-7.5809999 20.879999 -44.110001
-6.9159999 20.879999 -44.1082
-6.2509999 20.879999 -43.948002
-5.586 20.879999 -44.2342
-4.921 20.879999 -43.5322
-4.256 20.879999 -43.611401
-3.5910001 20.879999 -44.174801
-2.9260001 20.879999 -43.859798
-2.2609999 20.879999 -43.325199
-1.596 20.879999 -43.245998
-0.93099999 20.879999 -42.709599
-0.266 20.879999 -42.7276
0.39899999 20.879999 -42.603401
1.064 20.879999 -42.660999
1.729 20.879999 -inf
2.3940001 20.879999 -inf
3.059 20.879999 -inf
3.724 20.879999 -41.872601
4.3889999 20.879999 -42.173199
5.0539999 20.879999 -41.989601
5.7189999 20.879999 -42.077801
6.3839998 20.879999 -41.787998
7.0489998 20.879999 -42.526001
7.7140002 20.879999 -42.558399
8.3789997 20.879999 -43.114601
9.0439997 20.879999 -43.229801
9.7089996 20.879999 -42.806801
10.374 20.879999 -42.3694
11.039 20.879999 -42.468399
11.704 20.879999 -42.581799
12.369 20.879999 -42.340599
13.034 20.879999 -42.580002
13.699 20.879999 -43.091202
14.364 20.879999 -43.368401
15.029 20.879999 -43.359402
15.694 20.879999 -43.478199
16.358999 20.879999 -43.280201
17.024 20.879999 -43.458401
17.688999 20.879999 -43.231602
18.354 20.879999 -43.274799
19.018999 20.879999 -43.530399
19.684 20.879999 -43.728401
20.349001 20.879999 -43.9534
21.014 20.879999 -44.037998
21.679001 20.879999 -44.266602
22.344 20.879999 -44.389
23.009001 20.879999 -44.574402
23.674 20.879999 -44.678799
24.339001 20.879999 -45.011799
25.004 20.879999 -45.364601
25.669001 20.879999 -45.568001
26.334 20.879999 -45.424
26.999001 20.879999 -45.830799
27.664 20.879999 -45.931599
28.329 20.879999 -46.097198
28.993999 20.879999 -46.111599
29.659 20.879999 -46.363602
30.323999 20.879999 -46.7416
30.989 20.879999 -47.016998
31.653999 20.879999 -47.6488
32.319 20.879999 -48.028599
32.984001 20.879999 -49.049198
33.648998 20.879999 -49.618
34.313999 20.879999 -49.628799
34.979 20.879999 -49.834
35.644001 20.879999 -50.123798
36.308998 20.879999 -50.010399
36.973999 20.879999 -50.687199
37.639 20.879999 -50.676399
38.304001 20.879999 -50.892399
38.969002 20.879999 -51.173199
39.633999 20.879999 -51.976002
40.299 20.879999 -52.215401
40.964001 20.879999 -52.7644
41.629002 20.879999 -53.149601
42.293999 20.879999 -53.4664
42.959 20.879999 -53.9128
43.624001 20.879999 -54.3232
44.289001 20.879999 -54.728199
44.953999 20.879999 -55.7164
45.618999 20.879999 -56.411201
46.284 20.879999 -56.8144
46.949001 20.879999 -57.368801
47.613998 20.879999 -57.644199
48.278999 20.879999 -58.560398
48.944 20.879999 -59.258801
49.609001 20.879999 -59.5144
50.273998 20.879999 -60.0616
50.938999 20.879999 -60.288399
51.604 20.879999 -60.659199
52.269001 20.879999 -61.1092
52.933998 20.879999 -61.5952
53.598999 20.879999 -61.901199
54.264 20.879999 -62.075802
54.929001 20.879999 -62.0452
55.594002 20.879999 -62.090199
56.258999 20.879999 -62.374599
56.924 20.879999 -62.513199
57.589001 20.879999 -62.486198
58.254002 20.879999 -62.659
58.918999 20.879999 -62.408798
59.584 20.879999 -61.773399
60.249001 20.879999 -61.760799
60.914001 20.879999 -61.6726
61.578999 20.879999 -61.694199
62.243999 20.879999 -61.663601
62.909 20.879999 -61.757198
63.574001 20.879999 -61.643799
64.238998 20.879999 -61.658199
64.903999 20.879999 -61.984001
65.569 20.879999 -62.176601
66.234001 20.879999 -61.3666
66.899002 20.879999 -61.488998
67.564003 20.879999 -61.451199
68.228996 20.879999 -63.902802
68.893997 20.879999 -63.9874
69.558998 20.879999 -64.948601
70.223999 20.879999 -65.373398
70.889 20.879999 -65.981796
71.554001 20.879999 -66.653198
72.219002 20.879999 -66.703598
72.884003 20.879999 -67.434402
73.549004 20.879999 -68.030197
74.213997 20.879999 -70.480003
74.878998 20.879999 -inf
75.543999 20.879999 -inf
76.209 20.879999 -inf
76.874001 20.879999 -inf
77.539001 20.879999 -inf
78.204002 20.879999 -inf
78.869003 20.879999 -inf
79.533997 20.879999 -inf
80.198997 20.879999 -inf
80.863998 20.879999 -inf
81.528999 20.879999 -inf
82.194 20.879999 -inf
82.859001 20.879999 -inf
-57.456001 21.6 -inf
-56.791 21.6 -inf
-56.125999 21.6 -inf
-55.460999 21.6 -inf
-54.796001 21.6 -inf
-54.131001 21.6 -inf
-53.466 21.6 -inf
-52.800999 21.6 -inf
-52.136002 21.6 -inf
-51.471001 21.6 -inf
-50.806 21.6 -inf
-50.140999 21.6 -inf
-49.476002 21.6 -inf
-48.811001 21.6 -inf
-48.146 21.6 -inf
-47.480999 21.6 -inf
-46.816002 21.6 -inf
-46.151001 21.6 -55.244801
-45.486 21.6 -54.694
-44.820999 21.6 -53.907398
-44.155998 21.6 -53.882198
-43.491001 21.6 -53.536598
-42.826 21.6 -53.1604
-42.160999 21.6 -52.778801
-41.495998 21.6 -52.632999
-40.831001 21.6 -52.350399
-40.166 21.6 -51.788799
-39.500999 21.6 -51.018398
-38.835999 21.6 -50.456799
-38.171001 21.6 -50.194
-37.506001 21.6 -49.828602
-36.841 21.6 -49.346199
-36.175999 21.6 -49.1572
-35.511002 21.6 -48.865601
-34.846001 21.6 -48.806198
-34.181 21.6 -48.498402
-33.515999 21.6 -48.669399
-32.851002 21.6 -48.8008
-32.186001 21.6 -48.644199
-31.521 21.6 -48.638802
-30.856001 21.6 -48.397598
-30.191 21.6 -48.163601
-29.525999 21.6 -47.9566
-28.861 21.6 -47.787399
-28.195999 21.6 -47.848598
-27.531 21.6 -47.580399
-26.865999 21.6 -47.6092
-26.201 21.6 -47.472401
-25.535999 21.6 -47.5354
-24.871 21.6 -47.368
-24.205999 21.6 -47.382401
-23.541 21.6 -47.348202
-22.875999 21.6 -47.1646
-22.211 21.6 -47.051201
-21.546 21.6 -46.9216
-20.881001 21.6 -46.8694
-20.216 21.6 -46.945
-19.551001 21.6 -46.673199
-18.886 21.6 -46.853199
-18.221001 21.6 -46.309601
-17.556 21.6 -46.261002
-16.891001 21.6 -46.125999
-16.226 21.6 -46.291599
-15.561 21.6 -46.0774
-14.896 21.6 -46.054001
-14.231 21.6 -46.2682
-13.566 21.6 -46.396
-12.901 21.6 -46.122398
-12.236 21.6 -45.9874
-11.571 21.6 -45.611198
-10.906 21.6 -45.247601
-10.241 21.6 -44.979401
-9.5760002 21.6 -44.801201
-8.9110003 21.6 -44.446602
-8.2460003 21.6 -44.063202
-7.5809999 21.6 -44.3908
-6.9159999 21.6 -44.203602
-6.2509999 21.6 -44.1082
-5.586 21.6 -44.214401
-4.921 21.6 -43.687
-4.256 21.6 -43.843601
-3.5910001 21.6 -44.216202
-2.9260001 21.6 -43.730202
-2.2609999 21.6 -43.2136
-1.596 21.6 -43.067799
-0.93099999 21.6 -42.641201
-0.266 21.6 -42.504398
0.39899999 21.6 -42.4198
1.064 21.6 -42.5728
1.729 21.6 -42.581799
2.3940001 21.6 -42.749199
3.059 21.6 -42.526001
3.724 21.6 -42.380199
4.3889999 21.6 -45.314201
5.0539999 21.6 -42.3946
5.7189999 21.6 -42.108398
6.3839998 21.6 -41.872601
7.0489998 21.6 -42.157001
7.7140002 21.6 -42.401798
8.3789997 21.6 -42.641201
9.0439997 21.6 -42.8428
9.7089996 21.6 -42.794201
10.374 21.6 -42.778
11.039 21.6 -42.747398
11.704 21.6 -42.603401
12.369 21.6 -42.556599
13.034 21.6 -42.589001
13.699 21.6 -43.001202
14.364 21.6 -42.860802
15.029 21.6 -43.222599
15.694 21.6 -43.335999
16.358999 21.6 -43.323399
17.024 21.6 -43.361198
17.688999 21.6 -43.474602
18.354 21.6 -43.757198
19.018999 21.6 -43.847198
19.684 21.6 -43.8526
20.349001 21.6 -44.007401
21.014 21.6 -44.131599
21.679001 21.6 -44.086601
22.344 21.6 -44.244999
23.009001 21.6 -44.621201
23.674 21.6 -44.966801
24.339001 21.6 -45.508598
25.004 21.6 -45.510399
25.669001 21.6 -45.762402
26.334 21.6 -45.784
26.999001 21.6 -45.928001
27.664 21.6 -46.125999
28.329 21.6 -46.271801
28.993999 21.6 -47.035
29.659 21.6 -46.795601
30.323999 21.6 -47.0098
30.989 21.6 -47.312199
31.653999 21.6 -47.722599
32.319 21.6 -48.0466
32.984001 21.6 -49.072601
33.648998 21.6 -49.454201
34.313999 21.6 -49.470402
34.979 21.6 -49.7206
35.644001 21.6 -49.837601
36.308998 21.6 -49.839401
36.973999 21.6 -50.366798
37.639 21.6 -50.671001
38.304001 21.6 -51.167801
38.969002 21.6 -50.969799
39.633999 21.6 -51.742001
40.299 21.6 -52.118198
40.964001 21.6 -52.667198
41.629002 21.6 -53.154999
42.293999 21.6 -53.3242
42.959 21.6 -53.6194
43.624001 21.6 -54.211601
44.289001 21.6 -54.9226
44.953999 21.6 -55.761398
45.618999 21.6 -56.067402
46.284 21.6 -56.818001
46.949001 21.6 -57.971802
47.613998 21.6 -57.6586
48.278999 21.6 -58.216599
48.944 21.6 -59.2318
49.609001 21.6 -59.476601
50.273998 21.6 -59.854599
50.938999 21.6 -60.308201
51.604 21.6 -60.468399
52.269001 21.6 -61.064201
52.933998 21.6 -61.668999
53.598999 21.6 -61.935398
54.264 21.6 -62.127998
54.929001 21.6 -62.083
55.594002 21.6 -62.2486
56.258999 21.6 -62.250401
56.924 21.6 -62.372799
57.589001 21.6 -62.563599
58.254002 21.6 -62.918201
58.918999 21.6 -62.9884
59.584 21.6 -62.533001
60.249001 21.6 -62.115398
60.914001 21.6 -61.8004
61.578999 21.6 -61.937199
62.243999 21.6 -61.641998
62.909 21.6 -61.820202
63.574001 21.6 -61.350399
64.238998 21.6 -61.411598
64.903999 21.6 -61.901199
65.569 21.6 -61.7644
66.234001 21.6 -61.591599
66.899002 21.6 -62.028999
67.564003 21.6 -63.254799
68.228996 21.6 -64.374397
68.893997 21.6 -64.739799
69.558998 21.6 -65.436401
70.223999 21.6 -65.897202
70.889 21.6 -66.525398
71.554001 21.6 -67.059998
72.219002 21.6 -67.870003
72.884003 21.6 -68.5252
73.549004 21.6 -69.336998
74.213997 21.6 -inf
74.878998 21.6 -inf
75.543999 21.6 -inf
76.209 21.6 -inf
76.874001 21.6 -inf
77.539001 21.6 -inf
78.204002 21.6 -inf
78.869003 21.6 -inf
79.533997 21.6 -inf
80.198997 21.6 -inf
80.863998 21.6 -inf
81.528999 21.6 -inf
82.194 21.6 -inf
82.859001 21.6 -inf
-57.456001 22.32 -inf
-56.791 22.32 -inf
-56.125999 22.32 -inf
-55.460999 22.32 -inf
-54.796001 22.32 -inf
-54.131001 22.32 -inf
-53.466 22.32 -inf
-52.800999 22.32 -inf
-52.136002 22.32 -inf
-51.471001 22.32 -inf
-50.806 22.32 -inf
-50.140999 22.32 -inf
-49.476002 22.32 -inf
-48.811001 22.32 -inf
-48.146 22.32 -inf
-47.480999 22.32 -inf
-46.816002 22.32 -inf
-46.151001 22.32 -55.1404
-45.486 22.32 -54.451
-44.820999 22.32 -53.6446
-44.155998 22.32 -53.446602
-43.491001 22.32 -53.307999
-42.826 22.32 -52.832802
-42.160999 22.32 -52.683399
-41.495998 22.32 -52.681599
-40.831001 22.32 -52.683399
-40.166 22.32 -52.053398
-39.500999 22.32 -51.237999
-38.835999 22.32 -50.3974
-38.171001 22.32 -50.172401
-37.506001 22.32 -49.765598
-36.841 22.32 -49.290401
-36.175999 22.32 -49.027599
-35.511002 22.32 -48.640598
-34.846001 22.32 -48.653198
-34.181 22.32 -48.681999
-33.515999 22.32 -48.995201
-32.851002 22.32 -48.950199
-32.186001 22.32 -48.880001
-31.521 22.32 -48.916
-30.856001 22.32 -48.701801
-30.191 22.32 -48.361599
-29.525999 22.32 -48.278801
-28.861 22.32 -47.7244
-28.195999 22.32 -48.0952
-27.531 22.32 -47.785599
-26.865999 22.32 -47.819801
-26.201 22.32 -47.771198
-25.535999 22.32 -47.556999
-24.871 22.32 -47.4328
-24.205999 22.32 -47.548
-23.541 22.32 -47.387798
-22.875999 22.32 -47.556999
-22.211 22.32 -47.254601
-21.546 22.32 -47.121399
-20.881001 22.32 -46.882
-20.216 22.32 -46.813599
-19.551001 22.32 -46.889198
-18.886 22.32 -46.496799
-18.221001 22.32 -46.6264
-17.556 22.32 -46.475201
-16.891001 22.32 -46.289799
-16.226 22.32 -46.709202
-15.561 22.32 -46.790199
-14.896 22.32 -46.572399
-14.231 22.32 -46.649799
-13.566 22.32 -46.352798
-12.901 22.32 -46.1404
-12.236 22.32 -45.5392
-11.571 22.32 -45.265598
-10.906 22.32 -45.022598
-10.241 22.32 -44.8228
-9.5760002 22.32 -44.506001
-8.9110003 22.32 -44.322399
-8.2460003 22.32 -43.9804
-7.5809999 22.32 -43.946201
-6.9159999 22.32 -44.2108
-6.2509999 22.32 -44.074001
-5.586 22.32 -43.9156
-4.921 22.32 -43.906601
-4.256 22.32 -43.769798
-3.5910001 22.32 -43.782398
-2.9260001 22.32 -43.4422
-2.2609999 22.32 -42.875198
-1.596 22.32 -42.6646
-0.93099999 22.32 -42.3442
-0.266 22.32 -42.194801
0.39899999 22.32 -42.171398
1.064 22.32 -42.553001
1.729 22.32 -44.252201
2.3940001 22.32 -44.846199
3.059 22.32 -42.4594
3.724 22.32 -41.663799
4.3889999 22.32 -45.314201
5.0539999 22.32 -41.77
5.7189999 22.32 -41.9338
6.3839998 22.32 -41.735802
7.0489998 22.32 -42.182201
7.7140002 22.32 -42.263199
8.3789997 22.32 -42.5854
9.0439997 22.32 -42.707802
9.7089996 22.32 -42.914799
10.374 22.32 -42.696999
11.039 22.32 -42.635799
11.704 22.32 -42.389198
12.369 22.32 -42.425201
13.034 22.32 -42.466599
13.699 22.32 -42.693401
14.364 22.32 -42.723999
15.029 22.32 -42.934601
15.694 22.32 -43.112801
16.358999 22.32 -43.174
17.024 22.32 -43.2136
17.688999 22.32 -43.368401
18.354 22.32 -43.638401
19.018999 22.32 -43.834599
19.684 22.32 -43.875999
20.349001 22.32 -44.138802
21.014 22.32 -43.994801
21.679001 22.32 -44.302601
22.344 22.32 -44.227001
23.009001 22.32 -44.511398
23.674 22.32 -45.094601
24.339001 22.32 -45.357399
25.004 22.32 -45.825401
25.669001 22.32 -46.027
26.334 22.32 -46.304199
26.999001 22.32 -46.161999
27.664 22.32 -46.693001
28.329 22.32 -46.700199
28.993999 22.32 -46.8298
29.659 22.32 -46.865799
30.323999 22.32 -47.108799
30.989 22.32 -47.474201
31.653999 22.32 -47.7514
32.319 22.32 -48.421001
32.984001 22.32 -48.5704
33.648998 22.32 -49.113998
34.313999 22.32 -49.2724
34.979 22.32 -49.596401
35.644001 22.32 -49.9744
36.308998 22.32 -50.093201
36.973999 22.32 -50.264198
37.639 22.32 -50.608002
38.304001 22.32 -50.710602
38.969002 22.32 -51.230801
39.633999 22.32 -51.769001
40.299 22.32 -52.102001
40.964001 22.32 -52.793201
41.629002 22.32 -53.102798
42.293999 22.32 -53.3386
42.959 22.32 -53.624802
43.624001 22.32 -54.2314
44.289001 22.32 -54.976601
44.953999 22.32 -55.874802
45.618999 22.32 -56.5228
46.284 22.32 -56.747799
46.949001 22.32 -57.464199
47.613998 22.32 -58.123001
48.278999 22.32 -58.778198
48.944 22.32 -59.237202
49.609001 22.32 -59.401001
50.273998 22.32 -59.712399
50.938999 22.32 -59.930199
51.604 22.32 -60.5998
52.269001 22.32 -61.0084
52.933998 22.32 -61.465599
53.598999 22.32 -61.9426
54.264 22.32 -62.0326
54.929001 22.32 -62.0686
55.594002 22.32 -62.394402
56.258999 22.32 -62.714802
56.924 22.32 -62.5546
57.589001 22.32 -63.136002
58.254002 22.32 -63.375401
58.918999 22.32 -63.325001
59.584 22.32 -63.188202
60.249001 22.32 -62.651798
60.914001 22.32 -62.217999
61.578999 22.32 -61.991199
62.243999 22.32 -61.944401
62.909 22.32 -61.926399
63.574001 22.32 -61.629398
64.238998 22.32 -61.247799
64.903999 22.32 -61.525002
65.569 22.32 -61.7122
66.234001 22.32 -62.493401
66.899002 22.32 -63.139599
67.564003 22.32 -64.061203
68.228996 22.32 -64.557999
68.893997 22.32 -65.123199
69.558998 22.32 -65.803596
70.223999 22.32 -66.262604
70.889 22.32 -67.0186
71.554001 22.32 -67.9384
72.219002 22.32 -68.906799
72.884003 22.32 -68.995003
73.549004 22.32 -inf
74.213997 22.32 -inf
74.878998 22.32 -inf
75.543999 22.32 -inf
76.209 22.32 -inf
76.874001 22.32 -inf
77.539001 22.32 -inf
78.204002 22.32 -inf
78.869003 22.32 -inf
79.533997 22.32 -inf
80.198997 22.32 -inf
80.863998 22.32 -inf
81.528999 22.32 -inf
82.194 22.32 -inf
82.859001 22.32 -inf
-57.456001 23.040001 -inf
-56.791 23.040001 -inf
-56.125999 23.040001 -inf
-55.460999 23.040001 -inf
-54.796001 23.040001 -inf
-54.131001 23.040001 -inf
-53.466 23.040001 -inf
-52.800999 23.040001 -inf
-52.136002 23.040001 -inf
-51.471001 23.040001 -inf
-50.806 23.040001 -inf
-50.140999 23.040001 -inf
-49.476002 23.040001 -inf
-48.811001 23.040001 -inf
-48.146 23.040001 -inf
-47.480999 23.040001 -inf
-46.816002 23.040001 -inf
-46.151001 23.040001 -55.363602
-45.486 23.040001 -54.2728
-44.820999 23.040001 -53.7994
-44.155998 23.040001 -53.165798
-43.491001 23.040001 -53.144199
-42.826 23.040001 -53.028999
-42.160999 23.040001 -52.8652
-41.495998 23.040001 -52.427799
-40.831001 23.040001 -52.2262
-40.166 23.040001 -51.986801
-39.500999 23.040001 -51.110199
-38.835999 23.040001 -50.4748
-38.171001 23.040001 -50.087799
-37.506001 23.040001 -49.8358
-36.841 23.040001 -49.483002
-36.175999 23.040001 -49.126598
-35.511002 23.040001 -48.872799
-34.846001 23.040001 -48.790001
-34.181 23.040001 -48.817001
-33.515999 23.040001 -48.705399
-32.851002 23.040001 -48.656799
-32.186001 23.040001 -48.817001
-31.521 23.040001 -48.7342
-30.856001 23.040001 -48.8494
-30.191 23.040001 -48.8908
-29.525999 23.040001 -48.629799
-28.861 23.040001 -48.091599
-28.195999 23.040001 -48.548801
-27.531 23.040001 -48.348999
-26.865999 23.040001 -47.9944
-26.201 23.040001 -47.9566
-25.535999 23.040001 -47.772999
-24.871 23.040001 -47.708199
-24.205999 23.040001 -47.371601
-23.541 23.040001 -47.477798
-22.875999 23.040001 -47.493999
-22.211 23.040001 -47.339199
-21.546 23.040001 -47.362598
-20.881001 23.040001 -47.492199
-20.216 23.040001 -47.233002
-19.551001 23.040001 -47.198799
-18.886 23.040001 -46.882
-18.221001 23.040001 -47.027802
-17.556 23.040001 -46.849602
-16.891001 23.040001 -46.700199
-16.226 23.040001 -46.720001
-15.561 23.040001 -46.624599
-14.896 23.040001 -46.530998
-14.231 23.040001 -46.3186
-13.566 23.040001 -45.945999
-12.901 23.040001 -45.623798
-12.236 23.040001 -45.364601
-11.571 23.040001 -45.197201
-10.906 23.040001 -45.107201
-10.241 23.040001 -44.930801
-9.5760002 23.040001 -44.632
-8.9110003 23.040001 -44.394402
-8.2460003 23.040001 -44.066799
-7.5809999 23.040001 -44.104599
-6.9159999 23.040001 -44.1856
-6.2509999 23.040001 -44.304401
-5.586 23.040001 -44.039799
-4.921 23.040001 -43.897598
-4.256 23.040001 -43.910198
-3.5910001 23.040001 -43.6744
-2.9260001 23.040001 -43.0984
-2.2609999 23.040001 -43.029999
-1.596 23.040001 -42.868
-0.93099999 23.040001 -42.565601
-0.266 23.040001 -42.077801
0.39899999 23.040001 -42.450401
1.064 23.040001 -42.047199
1.729 23.040001 -42.174999
2.3940001 23.040001 -42.351398
3.059 23.040001 -42.333401
3.724 23.040001 -42.065201
4.3889999 23.040001 -45.314201
5.0539999 23.040001 -41.7034
5.7189999 23.040001 -41.685398
6.3839998 23.040001 -41.5648
7.0489998 23.040001 -42.155201
7.7140002 23.040001 -42.2416
8.3789997 23.040001 -42.436001
9.0439997 23.040001 -42.520599
9.7089996 23.040001 -42.884201
10.374 23.040001 -42.7024
11.039 23.040001 -42.103001
11.704 23.040001 -42.049
12.369 23.040001 -42.387402
13.034 23.040001 -42.679001
13.699 23.040001 -42.963402
14.364 23.040001 -42.832001
15.029 23.040001 -42.977798
15.694 23.040001 -43.283798
16.358999 23.040001 -43.355801
17.024 23.040001 -43.408001
17.688999 23.040001 -43.5592
18.354 23.040001 -43.858002
19.018999 23.040001 -43.843601
19.684 23.040001 -43.93
20.349001 23.040001 -43.991199
21.014 23.040001 -44.023602
21.679001 23.040001 -44.099201
22.344 23.040001 -44.389
23.009001 23.040001 -44.819199
23.674 23.040001 -45.152199
24.339001 23.040001 -45.226002
25.004 23.040001 -45.762402
25.669001 23.040001 -46.061199
26.334 23.040001 -46.262798
26.999001 23.040001 -46.441002
27.664 23.040001 -46.314999
28.329 23.040001 -46.534599
28.993999 23.040001 -46.773998
29.659 23.040001 -47.274399
30.323999 23.040001 -47.567799
30.989 23.040001 -47.5732
31.653999 23.040001 -48.1726
32.319 23.040001 -48.408401
32.984001 23.040001 -48.7342
33.648998 23.040001 -49.088799
34.313999 23.040001 -49.484798
34.979 23.040001 -49.834
35.644001 23.040001 -49.866402
36.308998 23.040001 -50.048199
36.973999 23.040001 -50.080601
37.639 23.040001 -50.41
38.304001 23.040001 -51.005798
38.969002 23.040001 -51.230801
39.633999 23.040001 -51.783401
40.299 23.040001 -52.087601
40.964001 23.040001 -52.507
41.629002 23.040001 -52.856201
42.293999 23.040001 -53.241402
42.959 23.040001 -53.844398
43.624001 23.040001 -54.499599
44.289001 23.040001 -54.890202
44.953999 23.040001 -55.8442
45.618999 23.040001 -56.123199
46.284 23.040001 -56.998001
46.949001 23.040001 -56.898998
47.613998 23.040001 -57.746799
48.278999 23.040001 -58.492001
48.944 23.040001 -58.9492
49.609001 23.040001 -59.341599
50.273998 23.040001 -59.798801
50.938999 23.040001 -60.256001
51.604 23.040001 -60.488201
52.269001 23.040001 -60.8302
52.933998 23.040001 -61.471001
53.598999 23.040001 -61.9786
54.264 23.040001 -62.1334
54.929001 23.040001 -62.138802
55.594002 23.040001 -62.444801
56.258999 23.040001 -62.596001
56.924 23.040001 -62.698601
57.589001 23.040001 -62.986599
58.254002 23.040001 -63.5896
58.918999 23.040001 -63.8092
59.584 23.040001 -63.3358
60.249001 23.040001 -63.024399
60.914001 23.040001 -62.820999
61.578999 23.040001 -62.3512
62.243999 23.040001 -62.412399
62.909 23.040001 -62.140598
63.574001 23.040001 -61.507
64.238998 23.040001 -61.665401
64.903999 23.040001 -61.7644
65.569 23.040001 -62.608601
66.234001 23.040001 -63.339401
66.899002 23.040001 -63.9226
67.564003 23.040001 -64.239403
68.228996 23.040001 -65.204201
68.893997 23.040001 -65.692001
69.558998 23.040001 -66.084396
70.223999 23.040001 -66.905197
70.889 23.040001 -67.834
71.554001 23.040001 -68.669197
72.219002 23.040001 -69.331596
72.884003 23.040001 -inf
73.549004 23.040001 -inf
74.213997 23.040001 -inf
74.878998 23.040001 -inf
75.543999 23.040001 -inf
76.209 23.040001 -inf
76.874001 23.040001 -inf
77.539001 23.040001 -inf
78.204002 23.040001 -inf
78.869003 23.040001 -inf
79.533997 23.040001 -inf
80.198997 23.040001 -inf
80.863998 23.040001 -inf
81.528999 23.040001 -inf
82.194 23.040001 -inf
82.859001 23.040001 -inf
-57.456001 23.76 -inf
-56.791 23.76 -inf
-56.125999 23.76 -inf
-55.460999 23.76 -inf
-54.796001 23.76 -inf
-54.131001 23.76 -inf
-53.466 23.76 -inf
-52.800999 23.76 -inf
-52.136002 23.76 -inf
-51.471001 23.76 -inf
-50.806 23.76 -inf
-50.140999 23.76 -inf
-49.476002 23.76 -inf
-48.811001 23.76 -inf
-48.146 23.76 -inf
-47.480999 23.76 -inf
-46.816002 23.76 -inf
-46.151001 23.76 -55.592201
-45.486 23.76 -54.445599
-44.820999 23.76 -54.294399
-44.155998 23.76 -53.698601
-43.491001 23.76 -53.538399
-42.826 23.76 -53.113602
-42.160999 23.76 -52.937199
-41.495998 23.76 -52.5448
-40.831001 23.76 -52.355801
-40.166 23.76 -52.026402
-39.500999 23.76 -50.966202
-38.835999 23.76 -50.4748
-38.171001 23.76 -50.163399
-37.506001 23.76 -49.702599
-36.841 23.76 -49.346199
-36.175999 23.76 -49.257999
-35.511002 23.76 -49.150002
-34.846001 23.76 -48.768398
-34.181 23.76 -48.689201
-33.515999 23.76 -48.491199
-32.851002 23.76 -48.321999
-32.186001 23.76 -48.3274
-31.521 23.76 -48.667599
-30.856001 23.76 -48.712601
-30.191 23.76 -48.556
-29.525999 23.76 -48.3922
-28.861 23.76 -48.375999
-28.195999 23.76 -48.388599
-27.531 23.76 -48.3634
-26.865999 23.76 -48.331001
-26.201 23.76 -48.201401
-25.535999 23.76 -48.048401
-24.871 23.76 -47.862999
-24.205999 23.76 -47.963799
-23.541 23.76 -47.922401
-22.875999 23.76 -47.733398
-22.211 23.76 -47.7118
-21.546 23.76 -47.515598
-20.881001 23.76 -47.499401
-20.216 23.76 -47.375198
-19.551001 23.76 -47.3932
-18.886 23.76 -47.179001
-18.221001 23.76 -47.016998
-17.556 23.76 -46.772202
-16.891001 23.76 -46.862202
-16.226 23.76 -46.9576
-15.561 23.76 -46.5868
-14.896 23.76 -46.2034
-14.231 23.76 -46.181801
-13.566 23.76 -45.890202
-12.901 23.76 -45.512199
-12.236 23.76 -45.377201
-11.571 23.76 -45.073002
-10.906 23.76 -45.038799
-10.241 23.76 -45.004601
-9.5760002 23.76 -44.577999
-8.9110003 23.76 -44.399799
-8.2460003 23.76 -44.405201
-7.5809999 23.76 -44.277401
-6.9159999 23.76 -44.563599
-6.2509999 23.76 -44.2738
-5.586 23.76 -43.910198
-4.921 23.76 -43.894001
-4.256 23.76 -43.870602
-3.5910001 23.76 -43.541199
-2.9260001 23.76 -43.2262
-2.2609999 23.76 -43.195599
-1.596 23.76 -43.114601
-0.93099999 23.76 -42.8554
-0.266 23.76 -42.954399
0.39899999 23.76 -43.235199
1.064 23.76 -42.569199
1.729 23.76 -42.516998
2.3940001 23.76 -42.545799
3.059 23.76 -42.425201
3.724 23.76 -42.070599
4.3889999 23.76 -45.314201
5.0539999 23.76 -42.056198
5.7189999 23.76 -41.881599
6.3839998 23.76 -43.964199
7.0489998 23.76 -41.8978
7.7140002 23.76 -42.2038
8.3789997 23.76 -42.326199
9.0439997 23.76 -42.117401
9.7089996 23.76 -42.763599
10.374 23.76 -42.473801
11.039 23.76 -42.180401
11.704 23.76 -42.209202
12.369 23.76 -42.259602
13.034 23.76 -42.601601
13.699 23.76 -43.004799
14.364 23.76 -43.069599
15.029 23.76 -43.357601
15.694 23.76 -43.359402
16.358999 23.76 -43.485401
17.024 23.76 -44.124401
17.688999 23.76 -44.212601
18.354 23.76 -44.470001
19.018999 23.76 -44.916401
19.684 23.76 -44.320599
20.349001 23.76 -44.1082
21.014 23.76 -44.522202
21.679001 23.76 -44.587002
22.344 23.76 -44.703999
23.009001 23.76 -45.3592
23.674 23.76 -45.451
24.339001 23.76 -45.861401
25.004 23.76 -45.827202
25.669001 23.76 -45.803799
26.334 23.76 -45.983799
26.999001 23.76 -46.129601
27.664 23.76 -46.385201
28.329 23.76 -46.855
28.993999 23.76 -49.967201
29.659 23.76 -47.695599
30.323999 23.76 -48.188801
30.989 23.76 -48.316601
31.653999 23.76 -48.6064
32.319 23.76 -48.897999
32.984001 23.76 -49.0942
33.648998 23.76 -49.293999
34.313999 23.76 -49.4902
34.979 23.76 -49.819599
35.644001 23.76 -50.370399
36.308998 23.76 -50.698002
36.973999 23.76 -50.753799
37.639 23.76 -51.389198
38.304001 23.76 -52.206402
38.969002 23.76 -52.526798
39.633999 23.76 -51.794201
40.299 23.76 -52.397202
40.964001 23.76 -52.888599
41.629002 23.76 -53.117199
42.293999 23.76 -53.523998
42.959 23.76 -54.004601
43.624001 23.76 -54.568001
44.289001 23.76 -55.2286
44.953999 23.76 -55.390598
45.618999 23.76 -56.2798
46.284 23.76 -56.674
46.949001 23.76 -57.077202
47.613998 23.76 -57.590199
48.278999 23.76 -58.418201
48.944 23.76 -58.483002
49.609001 23.76 -59.105801
50.273998 23.76 -59.773602
50.938999 23.76 -60.252399
51.604 23.76 -60.688
