# .PCD v0.7 - Point Cloud Data file format
VERSION 0.7
FIELDS x y z
SIZE 4 4 4
TYPE F F F
COUNT 1 1 1
WIDTH 1745
HEIGHT 1
VIEWPOINT 0 0 0 1 0 0 0
POINTS 1745
DATA ascii
41.895 -25.92 -66.750397
42.560001 -25.92 -67.504601
43.224998 -25.92 -67.754799
43.889999 -25.92 -68.325401
44.555 -25.92 -68.093201
45.220001 -25.92 -68.865402
45.884998 -25.92 -69.714996
46.549999 -25.92 -69.837402
47.215 -25.92 -70.335999
47.880001 -25.92 -70.8508
48.544998 -25.92 -71.437599
49.209999 -25.92 -72.245796
49.875 -25.92 -73.0756
50.540001 -25.92 -inf
51.205002 -25.92 -inf
51.869999 -25.92 -inf
52.535 -25.92 -inf
53.200001 -25.92 -inf
53.865002 -25.92 -inf
54.529999 -25.92 -inf
55.195 -25.92 -inf
55.860001 -25.92 -inf
56.525002 -25.92 -inf
57.189999 -25.92 -inf
57.855 -25.92 -inf
58.52 -25.92 -inf
59.185001 -25.92 -inf
59.849998 -25.92 -inf
60.514999 -25.92 -inf
61.18 -25.92 -inf
61.845001 -25.92 -inf
62.509998 -25.92 -inf
63.174999 -25.92 -inf
-69.160004 -25.200001 -inf
-68.495003 -25.200001 -inf
-67.830002 -25.200001 -70.451202
-67.165001 -25.200001 -69.2668
-66.5 -25.200001 -68.631401
-65.834999 -25.200001 -67.889801
-65.169998 -25.200001 -67.160797
-64.504997 -25.200001 -67.320999
-63.84 -25.200001 -66.968201
-63.174999 -25.200001 -66.467796
-62.509998 -25.200001 -65.846802
-61.845001 -25.200001 -65.220398
-61.18 -25.200001 -64.836998
-60.514999 -25.200001 -64.414001
-59.849998 -25.200001 -64.162003
-59.185001 -25.200001 -64
-58.52 -25.200001 -63.558998
-57.855 -25.200001 -63.495998
-57.189999 -25.200001 -62.851601
-56.525002 -25.200001 -62.5042
-55.860001 -25.200001 -62.509602
-55.195 -25.200001 -62.127998
-54.529999 -25.200001 -61.4818
-53.865002 -25.200001 -61.656399
-53.200001 -25.200001 -61.433201
-52.535 -25.200001 -61.283798
-51.869999 -25.200001 -60.990398
-51.205002 -25.200001 -60.4702
-50.540001 -25.200001 -60.120998
-49.875 -25.200001 -60.065201
-49.209999 -25.200001 -59.8438
-48.544998 -25.200001 -59.6134
-47.880001 -25.200001 -59.2174
-47.215 -25.200001 -58.715199
-46.549999 -25.200001 -58.351601
-45.884998 -25.200001 -58.193199
-45.220001 -25.200001 -58.000599
-44.555 -25.200001 -57.3922
-43.889999 -25.200001 -57.223
-43.224998 -25.200001 -57.784599
-42.560001 -25.200001 -57.574001
-41.895 -25.200001 -57.187
-41.23 -25.200001 -56.810799
-40.564999 -25.200001 -56.501202
-39.900002 -25.200001 -56.2654
-39.235001 -25.200001 -56.0116
-38.57 -25.200001 -55.581402
-37.904999 -25.200001 -54.517601
-37.240002 -25.200001 -54.202599
-36.575001 -25.200001 -53.264801
-35.91 -25.200001 -52.620399
-35.244999 -25.200001 -51.985001
-34.580002 -25.200001 -51.387402
-33.915001 -25.200001 -50.814999
-33.25 -25.200001 -49.688202
-32.584999 -25.200001 -49.027599
-31.92 -25.200001 -48.485802
-31.254999 -25.200001 -48.368801
-30.59 -25.200001 -48.050201
-29.924999 -25.200001 -47.2798
-29.26 -25.200001 -47.062
-28.594999 -25.200001 -46.8568
-27.93 -25.200001 -46.615601
-27.264999 -25.200001 -45.8578
-26.6 -25.200001 -45.6292
-25.934999 -25.200001 -45.801998
-25.27 -25.200001 -45.8992
-24.605 -25.200001 -45.524799
-23.940001 -25.200001 -45.443802
-23.275 -25.200001 -45.319599
-22.610001 -25.200001 -45.224201
-21.945 -25.200001 -44.577999
-21.280001 -25.200001 -44.084801
-20.615 -25.200001 -43.867001
-19.950001 -25.200001 -43.523201
-19.285 -25.200001 -43.829201
-18.620001 -25.200001 -44.086601
-17.955 -25.200001 -43.499802
-17.290001 -25.200001 -43.715801
-16.625 -25.200001 -43.777
-15.96 -25.200001 -43.3918
-15.295 -25.200001 -43.146999
-14.63 -25.200001 -43.298199
-13.965 -25.200001 -44.091999
-13.3 -25.200001 -44.131599
-12.635 -25.200001 -44.187401
-11.97 -25.200001 -43.883202
-11.305 -25.200001 -43.7374
-10.64 -25.200001 -43.791401
-9.9750004 -25.200001 -44.0182
-9.3100004 -25.200001 -44.084801
-8.6450005 -25.200001 -44.392601
-7.98 -25.200001 -44.327801
-7.3150001 -25.200001 -44.383598
-6.6500001 -25.200001 -44.0056
-5.9850001 -25.200001 -44.5168
-5.3200002 -25.200001 -44.855202
-4.6550002 -25.200001 -44.659
-3.99 -25.200001 -44.5672
-3.325 -25.200001 -44.1964
-2.6600001 -25.200001 -44.003799
-1.995 -25.200001 -43.5718
-1.33 -25.200001 -43.577202
-0.66500002 -25.200001 -43.8256
0 -25.200001 -44.826401
0.66500002 -25.200001 -44.792198
1.33 -25.200001 -45.4006
1.995 -25.200001 -45.173801
2.6600001 -25.200001 -44.894798
3.325 -25.200001 -43.687
3.99 -25.200001 -43.744598
4.6550002 -25.200001 -43.9408
5.3200002 -25.200001 -43.874199
5.9850001 -25.200001 -43.962399
6.6500001 -25.200001 -43.836399
7.3150001 -25.200001 -44.023602
7.98 -25.200001 -44.302601
8.6450005 -25.200001 -44.640999
9.3100004 -25.200001 -44.842602
9.9750004 -25.200001 -45.632801
10.64 -25.200001 -45.8074
11.305 -25.200001 -46.244801
11.97 -25.200001 -46.376202
12.635 -25.200001 -46.253799
13.3 -25.200001 -46.6138
13.965 -25.200001 -46.6768
14.63 -25.200001 -47.1898
15.295 -25.200001 -46.770401
15.96 -25.200001 -47.0116
16.625 -25.200001 -47.510201
17.290001 -25.200001 -47.8144
17.955 -25.200001 -48.278801
18.620001 -25.200001 -48.728802
19.285 -25.200001 -49.211201
19.950001 -25.200001 -49.483002
20.615 -25.200001 -50.212002
21.280001 -25.200001 -52.777
21.945 -25.200001 -53.443001
22.610001 -25.200001 -53.864201
23.275 -25.200001 -53.979401
23.940001 -25.200001 -54.216999
24.605 -25.200001 -54.0406
25.27 -25.200001 -54.200802
25.934999 -25.200001 -54.058601
26.6 -25.200001 -54.276402
27.264999 -25.200001 -54.816399
27.93 -25.200001 -54.82
28.594999 -25.200001 -55.207001
29.26 -25.200001 -55.739799
29.924999 -25.200001 -56.312199
30.59 -25.200001 -56.760399
31.254999 -25.200001 -57.221199
31.92 -25.200001 -57.780998
32.584999 -25.200001 -58.6576
33.25 -25.200001 -59.107601
33.915001 -25.200001 -59.881599
34.580002 -25.200001 -60.320801
35.244999 -25.200001 -61.056999
35.91 -25.200001 -61.811199
36.575001 -25.200001 -62.291801
37.240002 -25.200001 -62.8372
37.904999 -25.200001 -63.265598
38.57 -25.200001 -63.998199
39.235001 -25.200001 -64.642601
39.900002 -25.200001 -64.903603
40.564999 -25.200001 -65.101601
41.23 -25.200001 -65.659599
41.895 -25.200001 -66.919601
42.560001 -25.200001 -67.834
43.224998 -25.200001 -67.767403
43.889999 -25.200001 -67.7854
44.555 -25.200001 -67.987
45.220001 -25.200001 -68.564796
45.884998 -25.200001 -69.247002
46.549999 -25.200001 -69.720398
47.215 -25.200001 -70.145203
47.880001 -25.200001 -70.525002
48.544998 -25.200001 -70.755402
49.209999 -25.200001 -71.559998
49.875 -25.200001 -72.765999
50.540001 -25.200001 -inf
51.205002 -25.200001 -inf
51.869999 -25.200001 -inf
52.535 -25.200001 -inf
53.200001 -25.200001 -inf
53.865002 -25.200001 -inf
54.529999 -25.200001 -inf
55.195 -25.200001 -inf
55.860001 -25.200001 -inf
56.525002 -25.200001 -inf
57.189999 -25.200001 -inf
57.855 -25.200001 -inf
58.52 -25.200001 -inf
59.185001 -25.200001 -inf
59.849998 -25.200001 -inf
60.514999 -25.200001 -inf
61.18 -25.200001 -inf
61.845001 -25.200001 -inf
62.509998 -25.200001 -inf
63.174999 -25.200001 -inf
-69.160004 -24.48 -inf
-68.495003 -24.48 -inf
-67.830002 -24.48 -70.5448
-67.165001 -24.48 -69.504402
-66.5 -24.48 -68.681801
-65.834999 -24.48 -67.950996
-65.169998 -24.48 -67.544197
-64.504997 -24.48 -67.355202
-63.84 -24.48 -66.847603
-63.174999 -24.48 -66.304001
-62.509998 -24.48 -65.853996
-61.845001 -24.48 -64.847801
-61.18 -24.48 -64.583199
-60.514999 -24.48 -64.223198
-59.849998 -24.48 -64.197998
-59.185001 -24.48 -63.812801
-58.52 -24.48 -63.4006
-57.855 -24.48 -63.022598
-57.189999 -24.48 -62.9002
-56.525002 -24.48 -62.839001
-55.860001 -24.48 -62.1964
-55.195 -24.48 -61.922798
-54.529999 -24.48 -61.181198
-53.865002 -24.48 -61.237
-53.200001 -24.48 -61.184799
-52.535 -24.48 -61.026402
-51.869999 -24.48 -60.993999
-51.205002 -24.48 -60.506199
-50.540001 -24.48 -60.272202
-49.875 -24.48 -59.879799
-49.209999 -24.48 -59.593601
-48.544998 -24.48 -59.498199
-47.880001 -24.48 -59.0518
-47.215 -24.48 -58.5802
-46.549999 -24.48 -58.266998
-45.884998 -24.48 -57.9412
-45.220001 -24.48 -57.797199
-44.555 -24.48 -57.411999
-43.889999 -24.48 -57.354401
-43.224998 -24.48 -57.165401
-42.560001 -24.48 -57.241001
-41.895 -24.48 -56.584
-41.23 -24.48 -56.519199
-40.564999 -24.48 -56.123199
-39.900002 -24.48 -55.810001
-39.235001 -24.48 -55.655201
-38.57 -24.48 -55.3456
-37.904999 -24.48 -54.490601
-37.240002 -24.48 -54.019001
-36.575001 -24.48 -53.138802
-35.91 -24.48 -52.541199
-35.244999 -24.48 -51.9076
-34.580002 -24.48 -51.646599
-33.915001 -24.48 -51.007599
-33.25 -24.48 -50.1562
-32.584999 -24.48 -49.0294
-31.92 -24.48 -48.397598
-31.254999 -24.48 -48.361599
-30.59 -24.48 -47.717201
-29.924999 -24.48 -47.0242
-29.26 -24.48 -46.5868
-28.594999 -24.48 -46.980999
-27.93 -24.48 -46.068401
-27.264999 -24.48 -45.728199
-26.6 -24.48 -45.334
-25.934999 -24.48 -45.866798
-25.27 -24.48 -45.569801
-24.605 -24.48 -45.276402
-23.940001 -24.48 -45.191799
-23.275 -24.48 -45.2206
-22.610001 -24.48 -45.056801
-21.945 -24.48 -45.2584
-21.280001 -24.48 -44.264801
-20.615 -24.48 -43.615002
-19.950001 -24.48 -44.047001
-19.285 -24.48 -43.510601
-18.620001 -24.48 -43.778801
-17.955 -24.48 -43.3792
-17.290001 -24.48 -43.517799
-16.625 -24.48 -43.2514
-15.96 -24.48 -43.4674
-15.295 -24.48 -42.605202
-14.63 -24.48 -43.687
-13.965 -24.48 -43.705002
-13.3 -24.48 -44.435799
-12.635 -24.48 -44.189201
-11.97 -24.48 -43.794998
-11.305 -24.48 -43.643799
-10.64 -24.48 -43.883202
-9.9750004 -24.48 -44.059601
-9.3100004 -24.48 -44.036201
-8.6450005 -24.48 -44.284599
-7.98 -24.48 -44.2612
-7.3150001 -24.48 -44.405201
-6.6500001 -24.48 -44.446602
-5.9850001 -24.48 -44.792198
-5.3200002 -24.48 -45.227798
-4.6550002 -24.48 -44.6842
-3.99 -24.48 -44.489799
-3.325 -24.48 -44.164001
-2.6600001 -24.48 -44.009201
-1.995 -24.48 -43.433201
-1.33 -24.48 -43.487202
-0.66500002 -24.48 -44.1964
0 -24.48 -44.808399
0.66500002 -24.48 -45.022598
1.33 -24.48 -45.510399
1.995 -24.48 -45.256599
2.6600001 -24.48 -44.756199
3.325 -24.48 -44.0182
3.99 -24.48 -43.9048
4.6550002 -24.48 -43.496201
5.3200002 -24.48 -44.113602
5.9850001 -24.48 -44.2216
6.6500001 -24.48 -44.102798
7.3150001 -24.48 -44.164001
7.98 -24.48 -44.435799
8.6450005 -24.48 -44.5042
9.3100004 -24.48 -45.204399
9.9750004 -24.48 -45.888401
10.64 -24.48 -46.032398
11.305 -24.48 -46.097198
11.97 -24.48 -46.073799
12.635 -24.48 -46.044998
13.3 -24.48 -46.489601
13.965 -24.48 -46.570599
14.63 -24.48 -46.917999
15.295 -24.48 -47.106998
15.96 -24.48 -47.339199
16.625 -24.48 -47.614601
17.290001 -24.48 -47.870201
17.955 -24.48 -48.584801
18.620001 -24.48 -48.732399
19.285 -24.48 -49.0672
19.950001 -24.48 -49.583801
20.615 -24.48 -50.674599
21.280001 -24.48 -52.690601
21.945 -24.48 -53.122601
22.610001 -24.48 -53.3494
23.275 -24.48 -53.443001
23.940001 -24.48 -53.6698
24.605 -24.48 -53.851601
25.27 -24.48 -54.0532
25.934999 -24.48 -53.867802
26.6 -24.48 -54.1432
27.264999 -24.48 -54.631001
27.93 -24.48 -54.967602
28.594999 -24.48 -55.277199
29.26 -24.48 -55.7938
29.924999 -24.48 -56.233002
30.59 -24.48 -56.697399
31.254999 -24.48 -57.406601
31.92 -24.48 -58.069
32.584999 -24.48 -58.7188
33.25 -24.48 -59.264198
33.915001 -24.48 -59.671001
34.580002 -24.48 -60.308201
35.244999 -24.48 -61.0984
35.91 -24.48 -61.663601
36.575001 -24.48 -62.167599
37.240002 -24.48 -62.691399
37.904999 -24.48 -63.139599
38.57 -24.48 -63.918999
39.235001 -24.48 -64.577797
39.900002 -24.48 -64.826202
40.564999 -24.48 -64.930603
41.23 -24.48 -65.607399
41.895 -24.48 -66.851196
42.560001 -24.48 -67.673798
43.224998 -24.48 -67.915001
43.889999 -24.48 -68.1166
44.555 -24.48 -67.992401
45.220001 -24.48 -68.206596
45.884998 -24.48 -68.928398
46.549999 -24.48 -69.680801
47.215 -24.48 -70.069603
47.880001 -24.48 -70.706802
48.544998 -24.48 -71.3386
49.209999 -24.48 -71.828201
49.875 -24.48 -72.830803
50.540001 -24.48 -inf
51.205002 -24.48 -inf
51.869999 -24.48 -inf
52.535 -24.48 -inf
53.200001 -24.48 -inf
53.865002 -24.48 -inf
54.529999 -24.48 -inf
55.195 -24.48 -inf
55.860001 -24.48 -inf
56.525002 -24.48 -inf
57.189999 -24.48 -inf
57.855 -24.48 -inf
58.52 -24.48 -inf
59.185001 -24.48 -inf
59.849998 -24.48 -inf
60.514999 -24.48 -inf
61.18 -24.48 -inf
61.845001 -24.48 -inf
62.509998 -24.48 -inf
63.174999 -24.48 -inf
-69.160004 -23.76 -inf
-68.495003 -23.76 -inf
-67.830002 -23.76 -70.292801
-67.165001 -23.76 -69.304604
-66.5 -23.76 -68.681801
-65.834999 -23.76 -67.9618
-65.169998 -23.76 -67.126602
-64.504997 -23.76 -66.831398
-63.84 -23.76 -66.935799
-63.174999 -23.76 -66.320198
-62.509998 -23.76 -65.659599
-61.845001 -23.76 -65.027802
-61.18 -23.76 -65.223999
-60.514999 -23.76 -64.513
-59.849998 -23.76 -63.838001
-59.185001 -23.76 -63.532001
-58.52 -23.76 -63.5158
-57.855 -23.76 -62.864201
-57.189999 -23.76 -62.929001
-56.525002 -23.76 -62.8246
-55.860001 -23.76 -62.115398
-55.195 -23.76 -61.6348
-54.529999 -23.76 -61.4674
-53.865002 -23.76 -61.193802
-53.200001 -23.76 -60.778
-52.535 -23.76 -60.788799
-51.869999 -23.76 -60.455799
-51.205002 -23.76 -60.416199
-50.540001 -23.76 -60.014801
-49.875 -23.76 -59.9464
-49.209999 -23.76 -59.7826
-48.544998 -23.76 -59.355999
-47.880001 -23.76 -59.069801
-47.215 -23.76 -58.5532
-46.549999 -23.76 -58.153599
-45.884998 -23.76 -58.047401
-45.220001 -23.76 -57.7738
-44.555 -23.76 -57.307598
-43.889999 -23.76 -57.1222
-43.224998 -23.76 -56.972801
-42.560001 -23.76 -56.944
-41.895 -23.76 -56.333801
-41.23 -23.76 -56.198799
-40.564999 -23.76 -55.775799
-39.900002 -23.76 -55.388802
-39.235001 -23.76 -55.183601
-38.57 -23.76 -55.070202
-37.904999 -23.76 -54.803799
-37.240002 -23.76 -53.648201
-36.575001 -23.76 -52.731998
-35.91 -23.76 -52.499802
-35.244999 -23.76 -51.936401
-34.580002 -23.76 -51.641201
-33.915001 -23.76 -51.686199
-33.25 -23.76 -50.739399
-32.584999 -23.76 -49.153599
-31.92 -23.76 -48.336399
-31.254999 -23.76 -48.097
-30.59 -23.76 -47.764
-29.924999 -23.76 -46.7812
-29.26 -23.76 -46.608398
-28.594999 -23.76 -46.901798
-27.93 -23.76 -45.976601
-27.264999 -23.76 -45.762402
-26.6 -23.76 -45.5284
-25.934999 -23.76 -45.8344
-25.27 -23.76 -45.541
-24.605 -23.76 -45.6544
-23.940001 -23.76 -45.375401
-23.275 -23.76 -45.202599
-22.610001 -23.76 -44.938
-21.945 -23.76 -45.202599
-21.280001 -23.76 -44.633801
-20.615 -23.76 -43.948002
-19.950001 -23.76 -43.665401
-19.285 -23.76 -43.492599
-18.620001 -23.76 -43.425999
-17.955 -23.76 -43.204601
-17.290001 -23.76 -43.638401
-16.625 -23.76 -43.831001
-15.96 -23.76 -43.413399
-15.295 -23.76 -43.373798
-14.63 -23.76 -43.427799
-13.965 -23.76 -44.380001
-13.3 -23.76 -43.858002
-12.635 -23.76 -44.667999
-11.97 -23.76 -43.856201
-11.305 -23.76 -43.9678
-10.64 -23.76 -44.111801
-9.9750004 -23.76 -44.322399
-9.3100004 -23.76 -44.2612
-8.6450005 -23.76 -44.1838
-7.98 -23.76 -44.597801
-7.3150001 -23.76 -44.8102
-6.6500001 -23.76 -45.107201
-5.9850001 -23.76 -45.236801
-5.3200002 -23.76 -45.2962
-4.6550002 -23.76 -44.9884
-3.99 -23.76 -44.5186
-3.325 -23.76 -44.4772
-2.6600001 -23.76 -44.271999
-1.995 -23.76 -43.5322
-1.33 -23.76 -43.580799
-0.66500002 -23.76 -44.063202
0 -23.76 -44.804798
0.66500002 -23.76 -45.071201
1.33 -23.76 -45.146801
1.995 -23.76 -44.815601
2.6600001 -23.76 -43.881401
3.325 -23.76 -43.758999
3.99 -23.76 -44.047001
4.6550002 -23.76 -44.1982
5.3200002 -23.76 -43.701401
5.9850001 -23.76 -43.811199
6.6500001 -23.76 -43.84
7.3150001 -23.76 -44.489799
7.98 -23.76 -44.0308
8.6450005 -23.76 -44.452
9.3100004 -23.76 -45.227798
9.9750004 -23.76 -45.855999
10.64 -23.76 -46.341999
11.305 -23.76 -46.035999
11.97 -23.76 -46.0396
12.635 -23.76 -46.368999
13.3 -23.76 -46.7416
13.965 -23.76 -46.883801
14.63 -23.76 -47.076401
15.295 -23.76 -47.035
15.96 -23.76 -47.016998
16.625 -23.76 -47.772999
17.290001 -23.76 -48.051998
17.955 -23.76 -48.4426
18.620001 -23.76 -48.770199
19.285 -23.76 -48.867401
19.950001 -23.76 -49.555
20.615 -23.76 -50.608002
21.280001 -23.76 -53.000198
21.945 -23.76 -53.509602
22.610001 -23.76 -53.533001
23.275 -23.76 -53.653599
23.940001 -23.76 -53.741798
24.605 -23.76 -53.743599
25.27 -23.76 -54.161201
25.934999 -23.76 -54.181
26.6 -23.76 -54.1558
27.264999 -23.76 -54.382599
27.93 -23.76 -55.160198
28.594999 -23.76 -55.489601
29.26 -23.76 -56.078201
29.924999 -23.76 -56.218601
30.59 -23.76 -56.818001
31.254999 -23.76 -57.473202
31.92 -23.76 -58.0438
32.584999 -23.76 -58.598202
33.25 -23.76 -59.3866
33.915001 -23.76 -59.676399
34.580002 -23.76 -60.300999
35.244999 -23.76 -61.116402
35.91 -23.76 -61.831001
36.575001 -23.76 -62.2342
37.240002 -23.76 -62.633801
37.904999 -23.76 -63.119801
38.57 -23.76 -63.973
39.235001 -23.76 -64.6912
39.900002 -23.76 -64.865799
40.564999 -23.76 -65.135803
41.23 -23.76 -65.620003
41.895 -23.76 -66.491203
42.560001 -23.76 -67.4506
43.224998 -23.76 -67.738602
43.889999 -23.76 -67.916801
44.555 -23.76 -67.776398
45.220001 -23.76 -68.087799
45.884998 -23.76 -68.674599
46.549999 -23.76 -69.290199
47.215 -23.76 -70.024597
47.880001 -23.76 -70.838203
48.544998 -23.76 -71.914597
49.209999 -23.76 -72.380798
49.875 -23.76 -73.118797
50.540001 -23.76 -inf
51.205002 -23.76 -inf
51.869999 -23.76 -inf
52.535 -23.76 -inf
53.200001 -23.76 -inf
53.865002 -23.76 -inf
54.529999 -23.76 -inf
55.195 -23.76 -inf
55.860001 -23.76 -inf
56.525002 -23.76 -inf
57.189999 -23.76 -inf
57.855 -23.76 -inf
58.52 -23.76 -inf
59.185001 -23.76 -inf
59.849998 -23.76 -inf
60.514999 -23.76 -inf
61.18 -23.76 -inf
61.845001 -23.76 -inf
62.509998 -23.76 -inf
63.174999 -23.76 -inf
-69.160004 -23.040001 -inf
-68.495003 -23.040001 -inf
-67.830002 -23.040001 -70.165001
-67.165001 -23.040001 -69.173203
-66.5 -23.040001 -68.564796
-65.834999 -23.040001 -67.976196
-65.169998 -23.040001 -67.713402
-64.504997 -23.040001 -67.265198
-63.84 -23.040001 -66.883598
-63.174999 -23.040001 -66.458801
-62.509998 -23.040001 -65.643402
-61.845001 -23.040001 -65.290604
-61.18 -23.040001 -64.907204
-60.514999 -23.040001 -64.671402
-59.849998 -23.040001 -63.944199
-59.185001 -23.040001 -63.611198
-58.52 -23.040001 -63.047798
-57.855 -23.040001 -62.830002
-57.189999 -23.040001 -62.610401
-56.525002 -23.040001 -62.430401
-55.860001 -23.040001 -62.083
-55.195 -23.040001 -61.616798
-54.529999 -23.040001 -61.291
-53.865002 -23.040001 -60.823002
-53.200001 -23.040001 -60.507999
-52.535 -23.040001 -60.5368
-51.869999 -23.040001 -60.185799
-51.205002 -23.040001 -60.020199
-50.540001 -23.040001 -59.836601
-49.875 -23.040001 -59.852798
-49.209999 -23.040001 -59.557598
-48.544998 -23.040001 -59.2174
-47.880001 -23.040001 -58.909599
-47.215 -23.040001 -58.457802
-46.549999 -23.040001 -57.870998
-45.884998 -23.040001 -57.503799
-45.220001 -23.040001 -57.345402
-44.555 -23.040001 -56.888199
-43.889999 -23.040001 -56.654202
-43.224998 -23.040001 -56.539001
-42.560001 -23.040001 -56.5984
-41.895 -23.040001 -56.193401
-41.23 -23.040001 -55.9198
-40.564999 -23.040001 -55.496799
-39.900002 -23.040001 -55.070202
-39.235001 -23.040001 -54.958599
-38.57 -23.040001 -54.789398
-37.904999 -23.040001 -54.686798
-37.240002 -23.040001 -53.5546
-36.575001 -23.040001 -52.708599
-35.91 -23.040001 -52.307201
-35.244999 -23.040001 -51.916599
-34.580002 -23.040001 -51.565601
-33.915001 -23.040001 -51.4216
-33.25 -23.040001 -50.724998
-32.584999 -23.040001 -49.495602
-31.92 -23.040001 -48.5812
-31.254999 -23.040001 -48.586601
-30.59 -23.040001 -47.555199
-29.924999 -23.040001 -47.1124
-29.26 -23.040001 -46.534599
-28.594999 -23.040001 -46.694801
-27.93 -23.040001 -45.891998
-27.264999 -23.040001 -45.722801
-26.6 -23.040001 -45.73
-25.934999 -23.040001 -45.969398
-25.27 -23.040001 -45.906399
-24.605 -23.040001 -45.499599
-23.940001 -23.040001 -45.222401
-23.275 -23.040001 -45.145
-22.610001 -23.040001 -45.062199
-21.945 -23.040001 -45.175598
-21.280001 -23.040001 -44.830002
-20.615 -23.040001 -44.113602
-19.950001 -23.040001 -43.8382
-19.285 -23.040001 -43.471001
-18.620001 -23.040001 -43.397202
-17.955 -23.040001 -43.1866
-17.290001 -23.040001 -43.427799
-16.625 -23.040001 -43.663601
-15.96 -23.040001 -43.292801
-15.295 -23.040001 -43.564602
-14.63 -23.040001 -43.485401
-13.965 -23.040001 -43.9048
-13.3 -23.040001 -44.4664
-12.635 -23.040001 -44.585201
-11.97 -23.040001 -44.194599
-11.305 -23.040001 -44.144199
-10.64 -23.040001 -44.000198
-9.9750004 -23.040001 -44.084801
-9.3100004 -23.040001 -44.230598
-8.6450005 -23.040001 -43.785999
-7.98 -23.040001 -44.448399
-7.3150001 -23.040001 -44.738201
-6.6500001 -23.040001 -45.2458
-5.9850001 -23.040001 -45.420399
-5.3200002 -23.040001 -45.784
-4.6550002 -23.040001 -45.431198
-3.99 -23.040001 -45.098202
-3.325 -23.040001 -44.4412
-2.6600001 -23.040001 -44.3008
-1.995 -23.040001 -43.721199
-1.33 -23.040001 -44.212601
-0.66500002 -23.040001 -43.9156
0 -23.040001 -44.520401
0.66500002 -23.040001 -45.094601
1.33 -23.040001 -44.664398
1.995 -23.040001 -44.252201
2.6600001 -23.040001 -43.899399
3.325 -23.040001 -43.598801
3.99 -23.040001 -43.971401
4.6550002 -23.040001 -44.115398
5.3200002 -23.040001 -43.938999
5.9850001 -23.040001 -43.861599
6.6500001 -23.040001 -44.0956
7.3150001 -23.040001 -44.383598
7.98 -23.040001 -44.099201
8.6450005 -23.040001 -44.205399
9.3100004 -23.040001 -45.028
9.9750004 -23.040001 -45.555401
10.64 -23.040001 -45.917198
11.305 -23.040001 -46.1674
11.97 -23.040001 -45.823601
12.635 -23.040001 -46.863998
13.3 -23.040001 -47.080002
13.965 -23.040001 -47.101601
14.63 -23.040001 -47.078201
15.295 -23.040001 -47.013401
15.96 -23.040001 -47.207802
16.625 -23.040001 -47.7136
17.290001 -23.040001 -47.998001
17.955 -23.040001 -48.737801
18.620001 -23.040001 -48.6478
19.285 -23.040001 -49.0438
19.950001 -23.040001 -49.528
20.615 -23.040001 -50.899601
21.280001 -23.040001 -52.542999
21.945 -23.040001 -53.2216
22.610001 -23.040001 -53.318802
23.275 -23.040001 -53.538399
23.940001 -23.040001 -53.599602
24.605 -23.040001 -53.9884
25.27 -23.040001 -53.757999
25.934999 -23.040001 -53.876801
26.6 -23.040001 -54.046001
27.264999 -23.040001 -54.3862
27.93 -23.040001 -54.893799
28.594999 -23.040001 -55.478802
29.26 -23.040001 -56.083599
29.924999 -23.040001 -56.256401
30.59 -23.040001 -56.983601
31.254999 -23.040001 -57.323799
31.92 -23.040001 -58.200401
32.584999 -23.040001 -58.666599
33.25 -23.040001 -59.175999
33.915001 -23.040001 -59.5774
34.580002 -23.040001 -60.311798
35.244999 -23.040001 -61.069599
35.91 -23.040001 -61.667198
36.575001 -23.040001 -62.110001
37.240002 -23.040001 -62.723801
37.904999 -23.040001 -63.242199
38.57 -23.040001 -64.046799
39.235001 -23.040001 -64.678596
39.900002 -23.040001 -64.928802
40.564999 -23.040001 -65.152
41.23 -23.040001 -65.519203
41.895 -23.040001 -66.610001
42.560001 -23.040001 -67.342598
43.224998 -23.040001 -67.587402
43.889999 -23.040001 -67.736801
44.555 -23.040001 -67.853798
45.220001 -23.040001 -68.030197
45.884998 -23.040001 -68.658401
46.549999 -23.040001 -68.9356
47.215 -23.040001 -69.814003
47.880001 -23.040001 -70.456596
48.544998 -23.040001 -71.5186
49.209999 -23.040001 -72.332199
49.875 -23.040001 -73.068398
50.540001 -23.040001 -inf
51.205002 -23.040001 -inf
51.869999 -23.040001 -inf
52.535 -23.040001 -inf
53.200001 -23.040001 -inf
53.865002 -23.040001 -inf
54.529999 -23.040001 -inf
55.195 -23.040001 -inf
55.860001 -23.040001 -inf
56.525002 -23.040001 -inf
57.189999 -23.040001 -inf
57.855 -23.040001 -inf
58.52 -23.040001 -inf
59.185001 -23.040001 -inf
59.849998 -23.040001 -inf
60.514999 -23.040001 -inf
61.18 -23.040001 -inf
61.845001 -23.040001 -inf
62.509998 -23.040001 -inf
63.174999 -23.040001 -inf
-69.160004 -22.32 -inf
-68.495003 -22.32 -71.565399
-67.830002 -22.32 -70.197403
-67.165001 -22.32 -69.234398
-66.5 -22.32 -68.579201
-65.834999 -22.32 -67.932999
-65.169998 -22.32 -67.5532
-64.504997 -22.32 -67.072601
-63.84 -22.32 -66.723396
-63.174999 -22.32 -66.102402
-62.509998 -22.32 -65.945801
-61.845001 -22.32 -65.564201
-61.18 -22.32 -65.341003
-60.514999 -22.32 -64.948601
-59.849998 -22.32 -64.590401
-59.185001 -22.32 -63.665199
-58.52 -22.32 -63.442001
-57.855 -22.32 -63.125198
-57.189999 -22.32 -62.7598
-56.525002 -22.32 -62.306198
-55.860001 -22.32 -61.931801
-55.195 -22.32 -61.267601
-54.529999 -22.32 -61.377399
-53.865002 -22.32 -60.660999
-53.200001 -22.32 -60.308201
-52.535 -22.32 -60.067001
-51.869999 -22.32 -59.9356
-51.205002 -22.32 -59.683601
-50.540001 -22.32 -59.527
-49.875 -22.32 -59.426201
-49.209999 -22.32 -59.235401
-48.544998 -22.32 -59.084202
-47.880001 -22.32 -58.704399
-47.215 -22.32 -58.230999
-46.549999 -22.32 -57.730598
-45.884998 -22.32 -57.401199
-45.220001 -22.32 -57.0214
-44.555 -22.32 -56.657799
-43.889999 -22.32 -56.296001
-43.224998 -22.32 -56.247398
-42.560001 -22.32 -56.053001
-41.895 -22.32 -55.764999
-41.23 -22.32 -55.491402
-40.564999 -22.32 -55.334801
-39.900002 -22.32 -54.9352
-39.235001 -22.32 -54.866798
-38.57 -22.32 -54.5896
-37.904999 -22.32 -54.555401
-37.240002 -22.32 -53.484402
-36.575001 -22.32 -52.501598
-35.91 -22.32 -52.2784
-35.244999 -22.32 -51.756401
-34.580002 -22.32 -51.520599
-33.915001 -22.32 -51.625
-33.25 -22.32 -50.674599
-32.584999 -22.32 -49.778198
-31.92 -22.32 -49.040199
-31.254999 -22.32 -49.070801
-30.59 -22.32 -47.827
-29.924999 -22.32 -47.179001
-29.26 -22.32 -46.800999
-28.594999 -22.32 -46.450001
-27.93 -22.32 -46.018002
-27.264999 -22.32 -45.7318
-26.6 -22.32 -45.8848
-25.934999 -22.32 -45.724602
-25.27 -22.32 -45.577
-24.605 -22.32 -45.118
-23.940001 -22.32 -45.256599
-23.275 -22.32 -44.745399
-22.610001 -22.32 -44.864201
-21.945 -22.32 -44.864201
-21.280001 -22.32 -44.910999
-20.615 -22.32 -44.883999
-19.950001 -22.32 -44.3368
-19.285 -22.32 -43.5466
-18.620001 -22.32 -43.4188
-17.955 -22.32 -43.337799
-17.290001 -22.32 -43.593399
-16.625 -22.32 -43.561001
-15.96 -22.32 -43.6618
-15.295 -22.32 -43.498001
-14.63 -22.32 -43.971401
-13.965 -22.32 -44.1064
-13.3 -22.32 -44.6446
-12.635 -22.32 -44.549198
-11.97 -22.32 -44.137001
-11.305 -22.32 -43.951599
-10.64 -22.32 -43.687
-9.9750004 -22.32 -43.971401
-9.3100004 -22.32 -44.124401
-8.6450005 -22.32 -44.255798
-7.98 -22.32 -44.370998
-7.3150001 -22.32 -44.612202
-6.6500001 -22.32 -44.921799
-5.9850001 -22.32 -45.427601
-5.3200002 -22.32 -45.5284
-4.6550002 -22.32 -45.328602
-3.99 -22.32 -45.049599
-3.325 -22.32 -44.542
-2.6600001 -22.32 -43.805801
-1.995 -22.32 -43.525002
-1.33 -22.32 -44.176601
-0.66500002 -22.32 -43.910198
0 -22.32 -44.801201
0.66500002 -22.32 -44.659
1.33 -22.32 -44.189201
1.995 -22.32 -43.782398
2.6600001 -22.32 -43.463799
3.325 -22.32 -43.8022
3.99 -22.32 -44.201801
4.6550002 -22.32 -43.984001
5.3200002 -22.32 -44.241402
5.9850001 -22.32 -43.652802
6.6500001 -22.32 -44.424999
7.3150001 -22.32 -44.687801
7.98 -22.32 -44.0326
8.6450005 -22.32 -44.174801
9.3100004 -22.32 -44.819199
9.9750004 -22.32 -45.483398
10.64 -22.32 -45.818199
11.305 -22.32 -45.737202
11.97 -22.32 -46.161999
12.635 -22.32 -46.642601
13.3 -22.32 -46.910801
13.965 -22.32 -47.062
14.63 -22.32 -47.236599
15.295 -22.32 -47.1772
15.96 -22.32 -47.6236
16.625 -22.32 -47.812599
17.290001 -22.32 -47.935001
17.955 -22.32 -48.316601
18.620001 -22.32 -48.717999
19.285 -22.32 -49.623402
19.950001 -22.32 -49.689999
20.615 -22.32 -51.311798
21.280001 -22.32 -52.820202
21.945 -22.32 -53.246799
22.610001 -22.32 -53.1838
23.275 -22.32 -53.331402
23.940001 -22.32 -53.550999
24.605 -22.32 -53.433998
25.27 -22.32 -53.6968
25.934999 -22.32 -53.659
26.6 -22.32 -54.145
27.264999 -22.32 -54.191799
27.93 -22.32 -54.8866
28.594999 -22.32 -55.514801
29.26 -22.32 -55.963001
29.924999 -22.32 -56.223999
30.59 -22.32 -56.772999
31.254999 -22.32 -57.5578
31.92 -22.32 -58.096001
32.584999 -22.32 -58.591
33.25 -22.32 -59.336201
33.915001 -22.32 -59.688999
34.580002 -22.32 -60.232601
35.244999 -22.32 -61.228001
35.91 -22.32 -61.8022
36.575001 -22.32 -62.4016
37.240002 -22.32 -62.729198
37.904999 -22.32 -63.427601
38.57 -22.32 -64.0774
39.235001 -22.32 -64.549004
39.900002 -22.32 -64.754204
40.564999 -22.32 -65.128601
41.23 -22.32 -65.675797
41.895 -22.32 -66.780998
42.560001 -22.32 -67.439796
43.224998 -22.32 -67.740402
43.889999 -22.32 -67.855598
44.555 -22.32 -67.992401
45.220001 -22.32 -68.278603
45.884998 -22.32 -68.532402
46.549999 -22.32 -68.6548
47.215 -22.32 -69.374802
47.880001 -22.32 -70.0588
48.544998 -22.32 -71.127998
49.209999 -22.32 -72.382599
49.875 -22.32 -73.334801
50.540001 -22.32 -74.830597
51.205002 -22.32 -inf
51.869999 -22.32 -inf
52.535 -22.32 -inf
53.200001 -22.32 -inf
53.865002 -22.32 -inf
54.529999 -22.32 -inf
55.195 -22.32 -inf
55.860001 -22.32 -inf
56.525002 -22.32 -inf
57.189999 -22.32 -inf
57.855 -22.32 -inf
58.52 -22.32 -inf
59.185001 -22.32 -inf
59.849998 -22.32 -inf
60.514999 -22.32 -inf
61.18 -22.32 -inf
61.845001 -22.32 -inf
62.509998 -22.32 -inf
63.174999 -22.32 -inf
-69.160004 -21.6 -inf
-68.495003 -21.6 -71.216202
-67.830002 -21.6 -69.945396
-67.165001 -21.6 -69.050797
-66.5 -21.6 -68.588203
-65.834999 -21.6 -68.122002
-65.169998 -21.6 -67.641403
-64.504997 -21.6 -67.223801
-63.84 -21.6 -66.768402
-63.174999 -21.6 -66.25
-62.509998 -21.6 -65.953003
-61.845001 -21.6 -65.8144
-61.18 -21.6 -65.5336
-60.514999 -21.6 -65.0476
-59.849998 -21.6 -64.8964
-59.185001 -21.6 -63.991001
-58.52 -21.6 -63.497799
-57.855 -21.6 -63.290798
-57.189999 -21.6 -62.585201
-56.525002 -21.6 -62.0956
-55.860001 -21.6 -61.8274
-55.195 -21.6 -61.512402
-54.529999 -21.6 -61.053398
-53.865002 -21.6 -60.463001
-53.200001 -21.6 -60.043598
-52.535 -21.6 -60.020199
-51.869999 -21.6 -59.609798
-51.205002 -21.6 -59.5522
-50.540001 -21.6 -59.4244
-49.875 -21.6 -59.336201
-49.209999 -21.6 -59.1922
-48.544998 -21.6 -58.839401
-47.880001 -21.6 -58.5172
-47.215 -21.6 -58.077999
-46.549999 -21.6 -57.7756
-45.884998 -21.6 -57.285999
-45.220001 -21.6 -56.911598
-44.555 -21.6 -56.474201
-43.889999 -21.6 -56.272598
-43.224998 -21.6 -55.991798
-42.560001 -21.6 -55.8946
-41.895 -21.6 -55.5868
-41.23 -21.6 -55.188999
-40.564999 -21.6 -54.983799
-39.900002 -21.6 -54.918999
-39.235001 -21.6 -54.686798
-38.57 -21.6 -54.2188
-37.904999 -21.6 -54.186401
-37.240002 -21.6 -53.334999
-36.575001 -21.6 -52.5718
-35.91 -21.6 -52.107399
-35.244999 -21.6 -51.594398
-34.580002 -21.6 -51.4846
-33.915001 -21.6 -51.4702
-33.25 -21.6 -51.005798
-32.584999 -21.6 -50.1688
-31.92 -21.6 -49.256199
-31.254999 -21.6 -48.998798
-30.59 -21.6 -47.971001
-29.924999 -21.6 -47.132198
-29.26 -21.6 -46.6894
-28.594999 -21.6 -46.761398
-27.93 -21.6 -46.257401
-27.264999 -21.6 -45.901001
-26.6 -21.6 -45.882999
-25.934999 -21.6 -45.555401
-25.27 -21.6 -45.7444
-24.605 -21.6 -45.4384
-23.940001 -21.6 -44.992001
-23.275 -21.6 -44.902
-22.610001 -21.6 -44.790401
-21.945 -21.6 -45.256599
-21.280001 -21.6 -44.866001
-20.615 -21.6 -44.851601
-19.950001 -21.6 -44.405201
-19.285 -21.6 -43.4566
-18.620001 -21.6 -43.325199
-17.955 -21.6 -43.370201
-17.290001 -21.6 -43.515999
-16.625 -21.6 -43.370201
-15.96 -21.6 -43.9156
-15.295 -21.6 -44.048801
-14.63 -21.6 -44.072201
-13.965 -21.6 -43.966
-13.3 -21.6 -43.679798
-12.635 -21.6 -43.715801
-11.97 -21.6 -44.131599
-11.305 -21.6 -43.688801
-10.64 -21.6 -43.436798
-9.9750004 -21.6 -43.8256
-9.3100004 -21.6 -43.9534
-8.6450005 -21.6 -44.178398
-7.98 -21.6 -44.416
-7.3150001 -21.6 -44.642799
-6.6500001 -21.6 -44.880402
-5.9850001 -21.6 -45.368198
-5.3200002 -21.6 -45.568001
-4.6550002 -21.6 -45.4618
-3.99 -21.6 -44.820999
-3.325 -21.6 -44.851601
-2.6600001 -21.6 -44.6716
-1.995 -21.6 -45.044201
-1.33 -21.6 -44.4412
-0.66500002 -21.6 -44.831799
0 -21.6 -44.8606
0.66500002 -21.6 -44.236
1.33 -21.6 -43.586201
1.995 -21.6 -43.982201
2.6600001 -21.6 -43.6078
3.325 -21.6 -43.8634
3.99 -21.6 -44.039799
4.6550002 -21.6 -44.0308
5.3200002 -21.6 -43.993
5.9850001 -21.6 -44.021801
6.6500001 -21.6 -44.162201
7.3150001 -21.6 -44.047001
7.98 -21.6 -44.061401
8.6450005 -21.6 -44.113602
9.3100004 -21.6 -44.961399
9.9750004 -21.6 -45.585999
10.64 -21.6 -45.9118
11.305 -21.6 -46.131401
11.97 -21.6 -46.098999
12.635 -21.6 -46.674999
13.3 -21.6 -46.8298
13.965 -21.6 -47.198799
14.63 -21.6 -46.9576
15.295 -21.6 -47.429199
15.96 -21.6 -47.764
16.625 -21.6 -48.334599
17.290001 -21.6 -48.253601
17.955 -21.6 -48.448002
18.620001 -21.6 -49.002399
19.285 -21.6 -49.495602
19.950001 -21.6 -49.735001
20.615 -21.6 -51.324402
21.280001 -21.6 -52.715801
21.945 -21.6 -52.8778
22.610001 -21.6 -52.908401
23.275 -21.6 -53.432201
23.940001 -21.6 -53.383598
24.605 -21.6 -53.626598
25.27 -21.6 -53.765202
25.934999 -21.6 -53.882198
26.6 -21.6 -54.211601
27.264999 -21.6 -54.134201
27.93 -21.6 -54.5914
28.594999 -21.6 -55.181801
29.26 -21.6 -55.802799
29.924999 -21.6 -56.220402
30.59 -21.6 -56.760399
31.254999 -21.6 -57.642399
31.92 -21.6 -58.0798
32.584999 -21.6 -58.686401
33.25 -21.6 -59.095001
33.915001 -21.6 -59.888802
34.580002 -21.6 -60.2812
35.244999 -21.6 -61.044399
35.91 -21.6 -61.723
36.575001 -21.6 -62.280998
37.240002 -21.6 -62.864201
37.904999 -21.6 -63.4384
38.57 -21.6 -63.8452
39.235001 -21.6 -64.878403
39.900002 -21.6 -65.375198
40.564999 -21.6 -65.211403
41.23 -21.6 -65.773003
41.895 -21.6 -66.681999
42.560001 -21.6 -67.524399
43.224998 -21.6 -67.189598
43.889999 -21.6 -67.443398
44.555 -21.6 -68.280403
45.220001 -21.6 -67.824997
45.884998 -21.6 -68.2444
46.549999 -21.6 -68.318199
47.215 -21.6 -68.926598
47.880001 -21.6 -70.100197
48.544998 -21.6 -70.609596
49.209999 -21.6 -71.529404
49.875 -21.6 -73.142197
50.540001 -21.6 -74.801804
51.205002 -21.6 -inf
51.869999 -21.6 -inf
52.535 -21.6 -inf
53.200001 -21.6 -inf
53.865002 -21.6 -inf
54.529999 -21.6 -inf
55.195 -21.6 -inf
55.860001 -21.6 -inf
56.525002 -21.6 -inf
57.189999 -21.6 -inf
57.855 -21.6 -inf
58.52 -21.6 -inf
59.185001 -21.6 -inf
59.849998 -21.6 -inf
60.514999 -21.6 -inf
61.18 -21.6 -inf
61.845001 -21.6 -inf
62.509998 -21.6 -inf
63.174999 -21.6 -inf
-69.160004 -20.879999 -inf
-68.495003 -20.879999 -71.120796
-67.830002 -20.879999 -69.747398
-67.165001 -20.879999 -68.829399
-66.5 -20.879999 -68.530602
-65.834999 -20.879999 -68.147202
-65.169998 -20.879999 -67.904198
-64.504997 -20.879999 -67.500999
-63.84 -20.879999 -66.997002
-63.174999 -20.879999 -66.617203
-62.509998 -20.879999 -66.399399
-61.845001 -20.879999 -66.599197
-61.18 -20.879999 -65.861198
-60.514999 -20.879999 -64.889198
-59.849998 -20.879999 -64.916199
-59.185001 -20.879999 -63.992802
-58.52 -20.879999 -63.4258
-57.855 -20.879999 -62.945202
-57.189999 -20.879999 -62.7094
-56.525002 -20.879999 -61.901199
-55.860001 -20.879999 -61.498001
-55.195 -20.879999 -61.155998
-54.529999 -20.879999 -60.985001
-53.865002 -20.879999 -60.621399
-53.200001 -20.879999 -60.212799
-52.535 -20.879999 -60.273998
-51.869999 -20.879999 -59.753799
-51.205002 -20.879999 -59.699799
-50.540001 -20.879999 -59.109402
-49.875 -20.879999 -59.055401
-49.209999 -20.879999 -58.927601
-48.544998 -20.879999 -58.1842
-47.880001 -20.879999 -58.373199
-47.215 -20.879999 -57.820599
-46.549999 -20.879999 -57.473202
-45.884998 -20.879999 -57.154598
-45.220001 -20.879999 -56.690201
-44.555 -20.879999 -56.297798
-43.889999 -20.879999 -56.018799
-43.224998 -20.879999 -55.658798
-42.560001 -20.879999 -55.615601
-41.895 -20.879999 -55.444599
-41.23 -20.879999 -54.7966
-40.564999 -20.879999 -54.6418
-39.900002 -20.879999 -54.5662
-39.235001 -20.879999 -54.224201
-38.57 -20.879999 -53.831799
-37.904999 -20.879999 -53.858799
-37.240002 -20.879999 -53.232399
-36.575001 -20.879999 -52.337799
-35.91 -20.879999 -51.860802
-35.244999 -20.879999 -51.706001
-34.580002 -20.879999 -51.570999
-33.915001 -20.879999 -51.493599
-33.25 -20.879999 -51.130001
-32.584999 -20.879999 -50.451401
-31.92 -20.879999 -49.4002
-31.254999 -20.879999 -49.4776
-30.59 -20.879999 -48.105999
-29.924999 -20.879999 -47.3302
-29.26 -20.879999 -47.2132
-28.594999 -20.879999 -47.089001
-27.93 -20.879999 -46.4104
-27.264999 -20.879999 -45.622002
-26.6 -20.879999 -45.7318
-25.934999 -20.879999 -45.598598
-25.27 -20.879999 -45.847
-24.605 -20.879999 -45.415001
-23.940001 -20.879999 -45.089199
-23.275 -20.879999 -44.866001
-22.610001 -20.879999 -44.903801
-21.945 -20.879999 -44.815601
-21.280001 -20.879999 -44.840801
-20.615 -20.879999 -44.676998
-19.950001 -20.879999 -44.597801
-19.285 -20.879999 -44.086601
-18.620001 -20.879999 -43.848999
-17.955 -20.879999 -43.245998
-17.290001 -20.879999 -43.298199
-16.625 -20.879999 -43.197399
-15.96 -20.879999 -43.6348
-15.295 -20.879999 -43.694199
-14.63 -20.879999 -43.681599
-13.965 -20.879999 -43.966
-13.3 -20.879999 -43.465599
-12.635 -20.879999 -43.388199
-11.97 -20.879999 -43.5844
-11.305 -20.879999 -43.465599
-10.64 -20.879999 -43.267601
-9.9750004 -20.879999 -43.793201
-9.3100004 -20.879999 -43.913799
-8.6450005 -20.879999 -44.180199
-7.98 -20.879999 -44.498798
-7.3150001 -20.879999 -44.605
-6.6500001 -20.879999 -44.716599
-5.9850001 -20.879999 -45.294399
-5.3200002 -20.879999 -45.499599
-4.6550002 -20.879999 -45.384399
-3.99 -20.879999 -45.2062
-3.325 -20.879999 -45.3232
-2.6600001 -20.879999 -44.788601
-1.995 -20.879999 -44.527599
-1.33 -20.879999 -44.4772
-0.66500002 -20.879999 -44.8606
0 -20.879999 -44.910999
0.66500002 -20.879999 -43.768002
1.33 -20.879999 -43.845402
1.995 -20.879999 -43.620399
2.6600001 -20.879999 -43.935398
3.325 -20.879999 -49.429001
3.99 -20.879999 -43.4422
4.6550002 -20.879999 -43.4566
5.3200002 -20.879999 -43.773399
5.9850001 -20.879999 -44.0308
6.6500001 -20.879999 -44.189201
7.3150001 -20.879999 -44.538399
7.98 -20.879999 -44.345798
8.6450005 -20.879999 -44.212601
9.3100004 -20.879999 -44.7868
9.9750004 -20.879999 -45.416801
10.64 -20.879999 -45.893799
11.305 -20.879999 -46.032398
11.97 -20.879999 -46.176399
12.635 -20.879999 -46.277199
13.3 -20.879999 -46.8172
13.965 -20.879999 -47.080002
14.63 -20.879999 -47.169998
15.295 -20.879999 -47.218601
15.96 -20.879999 -47.641602
16.625 -20.879999 -47.8792
17.290001 -20.879999 -48.230202
17.955 -20.879999 -48.736
18.620001 -20.879999 -49.344398
19.285 -20.879999 -49.609001
19.950001 -20.879999 -49.765598
20.615 -20.879999 -51.183998
21.280001 -20.879999 -52.643799
21.945 -20.879999 -53.131599
22.610001 -20.879999 -53.1838
23.275 -20.879999 -53.1208
23.940001 -20.879999 -53.509602
24.605 -20.879999 -53.266602
25.27 -20.879999 -53.605
25.934999 -20.879999 -53.790401
26.6 -20.879999 -53.9776
27.264999 -20.879999 -54.1828
27.93 -20.879999 -54.8578
28.594999 -20.879999 -55.1422
29.26 -20.879999 -55.889198
29.924999 -20.879999 -56.3032
30.59 -20.879999 -57.015999
31.254999 -20.879999 -57.611801
31.92 -20.879999 -58.367802
32.584999 -20.879999 -58.857399
33.25 -20.879999 -59.235401
33.915001 -20.879999 -60.002201
34.580002 -20.879999 -60.320801
35.244999 -20.879999 -61.1236
35.91 -20.879999 -61.6618
36.575001 -20.879999 -62.200001
37.240002 -20.879999 -62.878601
37.904999 -20.879999 -63.494202
38.57 -20.879999 -64.217796
39.235001 -20.879999 -64.836998
39.900002 -20.879999 -65.132202
40.564999 -20.879999 -65.342796
41.23 -20.879999 -65.850403
41.895 -20.879999 -66.498398
42.560001 -20.879999 -67.641403
43.224998 -20.879999 -67.623398
43.889999 -20.879999 -67.619797
44.555 -20.879999 -67.943802
45.220001 -20.879999 -67.861
45.884998 -20.879999 -67.967201
46.549999 -20.879999 -68.514397
47.215 -20.879999 -68.973396
47.880001 -20.879999 -69.781601
48.544998 -20.879999 -71.012802
49.209999 -20.879999 -71.378197
49.875 -20.879999 -72.740799
50.540001 -20.879999 -74.6632
51.205002 -20.879999 -inf
51.869999 -20.879999 -inf
52.535 -20.879999 -inf
53.200001 -20.879999 -inf
53.865002 -20.879999 -inf
54.529999 -20.879999 -inf
55.195 -20.879999 -inf
55.860001 -20.879999 -inf
56.525002 -20.879999 -inf
57.189999 -20.879999 -inf
57.855 -20.879999 -inf
58.52 -20.879999 -inf
59.185001 -20.879999 -inf
59.849998 -20.879999 -inf
60.514999 -20.879999 -inf
61.18 -20.879999 -inf
61.845001 -20.879999 -inf
62.509998 -20.879999 -inf
63.174999 -20.879999 -inf
-69.160004 -20.16 -inf
-68.495003 -20.16 -71.437599
-67.830002 -20.16 -69.720398
-67.165001 -20.16 -68.8582
-66.5 -20.16 -68.561203
-65.834999 -20.16 -68.251602
-65.169998 -20.16 -68.176003
-64.504997 -20.16 -67.729599
-63.84 -20.16 -67.414597
-63.174999 -20.16 -67.115799
-62.509998 -20.16 -66.410202
-61.845001 -20.16 -65.827003
-61.18 -20.16 -65.378799
-60.514999 -20.16 -64.876602
-59.849998 -20.16 -64.377998
-59.185001 -20.16 -63.841599
-58.52 -20.16 -63.251202
-57.855 -20.16 -62.745399
-57.189999 -20.16 -62.2864
-56.525002 -20.16 -61.922798
-55.860001 -20.16 -61.577202
-55.195 -20.16 -61.267601
-54.529999 -20.16 -61.219002
-53.865002 -20.16 -60.7132
-53.200001 -20.16 -60.250599
-52.535 -20.16 -59.699799
-51.869999 -20.16 -59.6926
-51.205002 -20.16 -59.791599
-50.540001 -20.16 -59.4604
-49.875 -20.16 -59.120201
-49.209999 -20.16 -58.6936
-48.544998 -20.16 -58.072601
-47.880001 -20.16 -57.9772
-47.215 -20.16 -57.523602
-46.549999 -20.16 -57.332802
-45.884998 -20.16 -56.935001
-45.220001 -20.16 -56.5858
-44.555 -20.16 -56.155602
-43.889999 -20.16 -55.9342
-43.224998 -20.16 -55.4338
-42.560001 -20.16 -55.453602
-41.895 -20.16 -55.151199
-41.23 -20.16 -54.402401
-40.564999 -20.16 -54.2188
-39.900002 -20.16 -54.161201
-39.235001 -20.16 -53.806599
-38.57 -20.16 -53.583401
-37.904999 -20.16 -53.5672
-37.240002 -20.16 -53.140598
-36.575001 -20.16 -52.249599
-35.91 -20.16 -51.696999
-35.244999 -20.16 -51.360401
-34.580002 -20.16 -51.2164
-33.915001 -20.16 -51.106602
-33.25 -20.16 -51.245201
-32.584999 -20.16 -50.3326
-31.92 -20.16 -49.5532
-31.254999 -20.16 -49.339001
-30.59 -20.16 -47.9314
-29.924999 -20.16 -47.364399
-29.26 -20.16 -46.995399
-28.594999 -20.16 -46.901798
-27.93 -20.16 -46.657001
-27.264999 -20.16 -46.234001
-26.6 -20.16 -45.789398
-25.934999 -20.16 -45.757
-25.27 -20.16 -45.670601
-24.605 -20.16 -45.263802
-23.940001 -20.16 -45.082001
-23.275 -20.16 -44.558201
-22.610001 -20.16 -44.6446
-21.945 -20.16 -44.597801
-21.280001 -20.16 -44.603199
-20.615 -20.16 -44.5438
-19.950001 -20.16 -44.558201
-19.285 -20.16 -44.635601
-18.620001 -20.16 -43.910198
-17.955 -20.16 -43.260399
-17.290001 -20.16 -43.105598
-16.625 -20.16 -43.204601
-15.96 -20.16 -43.8904
-15.295 -20.16 -43.701401
-14.63 -20.16 -43.624001
-13.965 -20.16 -43.785999
-13.3 -20.16 -43.451199
-12.635 -20.16 -43.488998
-11.97 -20.16 -43.652802
-11.305 -20.16 -43.375599
-10.64 -20.16 -43.247799
-9.9750004 -20.16 -43.809399
-9.3100004 -20.16 -43.8508
-8.6450005 -20.16 -43.9174
-7.98 -20.16 -44.192799
-7.3150001 -20.16 -44.4016
-6.6500001 -20.16 -44.633801
-5.9850001 -20.16 -45.055
-5.3200002 -20.16 -45.375401
-4.6550002 -20.16 -45.557201
-3.99 -20.16 -45.416801
-3.325 -20.16 -45.013599
-2.6600001 -20.16 -44.801201
-1.995 -20.16 -44.5816
-1.33 -20.16 -44.7724
-0.66500002 -20.16 -44.921799
0 -20.16 -44.5816
0.66500002 -20.16 -43.872398
1.33 -20.16 -44.101002
1.995 -20.16 -43.861599
2.6600001 -20.16 -43.663601
3.325 -20.16 -43.771599
3.99 -20.16 -43.6852
4.6550002 -20.16 -44.000198
5.3200002 -20.16 -43.908401
5.9850001 -20.16 -43.9048
6.6500001 -20.16 -44.354801
7.3150001 -20.16 -44.257599
7.98 -20.16 -44.523998
8.6450005 -20.16 -44.612202
9.3100004 -20.16 -44.864201
9.9750004 -20.16 -45.179199
10.64 -20.16 -45.735401
11.305 -20.16 -45.891998
11.97 -20.16 -46.161999
12.635 -20.16 -46.606602
13.3 -20.16 -46.837002
13.965 -20.16 -47.0224
14.63 -20.16 -47.193401
15.295 -20.16 -47.641602
15.96 -20.16 -47.895401
16.625 -20.16 -48.152802
17.290001 -20.16 -48.359798
17.955 -20.16 -48.367001
18.620001 -20.16 -48.9268
19.285 -20.16 -49.535198
19.950001 -20.16 -49.709801
20.615 -20.16 -51.327999
21.280001 -20.16 -52.362999
21.945 -20.16 -52.760799
22.610001 -20.16 -52.831001
23.275 -20.16 -53.099201
23.940001 -20.16 -53.2108
24.605 -20.16 -53.264801
25.27 -20.16 -53.4142
25.934999 -20.16 -53.484402
26.6 -20.16 -54.073002
27.264999 -20.16 -54.199001
27.93 -20.16 -54.8326
28.594999 -20.16 -55.633598
29.26 -20.16 -55.660599
29.924999 -20.16 -56.326599
30.59 -20.16 -57.025002
31.254999 -20.16 -57.946602
31.92 -20.16 -58.2202
32.584999 -20.16 -59.062599
33.25 -20.16 -59.557598
33.915001 -20.16 -60.0616
34.580002 -20.16 -60.4972
35.244999 -20.16 -61.1632
35.91 -20.16 -61.514198
36.575001 -20.16 -62.2612
37.240002 -20.16 -62.943401
37.904999 -20.16 -63.393398
38.57 -20.16 -63.854198
39.235001 -20.16 -65.040398
39.900002 -20.16 -65.429199
40.564999 -20.16 -65.488602
41.23 -20.16 -65.785599
41.895 -20.16 -66.755798
42.560001 -20.16 -67.277802
43.224998 -20.16 -67.254402
43.889999 -20.16 -67.457802
44.555 -20.16 -67.814201
45.220001 -20.16 -68.179604
45.884998 -20.16 -67.997803
46.549999 -20.16 -68.811401
47.215 -20.16 -69.137199
47.880001 -20.16 -69.763603
48.544998 -20.16 -70.668999
49.209999 -20.16 -71.156799
49.875 -20.16 -72.087402
50.540001 -20.16 -74.0242
51.205002 -20.16 -inf
51.869999 -20.16 -inf
52.535 -20.16 -inf
53.200001 -20.16 -inf
53.865002 -20.16 -inf
54.529999 -20.16 -inf
55.195 -20.16 -inf
55.860001 -20.16 -inf
56.525002 -20.16 -inf
57.189999 -20.16 -inf
57.855 -20.16 -inf
58.52 -20.16 -inf
59.185001 -20.16 -inf
59.849998 -20.16 -inf
60.514999 -20.16 -inf
61.18 -20.16 -inf
61.845001 -20.16 -inf
62.509998 -20.16 -inf
63.174999 -20.16 -inf
-69.160004 -19.440001 -inf
-68.495003 -19.440001 -71.124397
-67.830002 -19.440001 -69.610603
-67.165001 -19.440001 -68.872597
-66.5 -19.440001 -68.482002
-65.834999 -19.440001 -68.584602
-65.169998 -19.440001 -68.073402
-64.504997 -19.440001 -67.950996
-63.84 -19.440001 -67.596397
-63.174999 -19.440001 -67.384003
-62.509998 -19.440001 -66.730598
-61.845001 -19.440001 -66.041199
-61.18 -19.440001 -65.468803
-60.514999 -19.440001 -64.917999
-59.849998 -19.440001 -64.347397
-59.185001 -19.440001 -64.014397
-58.52 -19.440001 -63.4744
-57.855 -19.440001 -62.763401
-57.189999 -19.440001 -62.354801
-56.525002 -19.440001 -61.901199
-55.860001 -19.440001 -61.4818
-55.195 -19.440001 -61.321602
-54.529999 -19.440001 -61.001202
-53.865002 -19.440001 -60.515202
-53.200001 -19.440001 -60.070599
-52.535 -19.440001 -60.040001
-51.869999 -19.440001 -59.8204
-51.205002 -19.440001 -59.6926
-50.540001 -19.440001 -59.375801
-49.875 -19.440001 -58.8232
-49.209999 -19.440001 -58.481201
-48.544998 -19.440001 -57.9286
-47.880001 -19.440001 -57.854801
-47.215 -19.440001 -57.331001
-46.549999 -19.440001 -57.100601
-45.884998 -19.440001 -56.9062
-45.220001 -19.440001 -56.242001
-44.555 -19.440001 -55.8946
-43.889999 -19.440001 -55.509399
-43.224998 -19.440001 -55.104401
-42.560001 -19.440001 -55.169201
-41.895 -19.440001 -54.7318
-41.23 -19.440001 -54.006401
-40.564999 -19.440001 -53.820999
-39.900002 -19.440001 -53.6698
-39.235001 -19.440001 -53.525799
-38.57 -19.440001 -53.397999
-37.904999 -19.440001 -53.412399
-37.240002 -19.440001 -53.036201
-36.575001 -19.440001 -52.2388
-35.91 -19.440001 -51.592602
-35.244999 -19.440001 -51.196602
-34.580002 -19.440001 -51.094002
-33.915001 -19.440001 -51.018398
-33.25 -19.440001 -50.867199
-32.584999 -19.440001 -50.199402
-31.92 -19.440001 -49.2346
-31.254999 -19.440001 -49.2724
-30.59 -19.440001 -48.1348
-29.924999 -19.440001 -47.4454
-29.26 -19.440001 -46.847801
-28.594999 -19.440001 -46.603001
-27.93 -19.440001 -46.8046
-27.264999 -19.440001 -46.219601
-26.6 -19.440001 -45.506802
-25.934999 -19.440001 -45.825401
-25.27 -19.440001 -45.789398
-24.605 -19.440001 -45.478001
-23.940001 -19.440001 -45.226002
-23.275 -19.440001 -44.745399
-22.610001 -19.440001 -44.725601
-21.945 -19.440001 -44.660801
-21.280001 -19.440001 -44.4772
-20.615 -19.440001 -44.299
-19.950001 -19.440001 -45.0028
-19.285 -19.440001 -45.071201
-18.620001 -19.440001 -44.536598
-17.955 -19.440001 -43.539398
-17.290001 -19.440001 -43.114601
-16.625 -19.440001 -42.909401
-15.96 -19.440001 -42.990398
-15.295 -19.440001 -43.4566
-14.63 -19.440001 -43.5196
-13.965 -19.440001 -43.170399
-13.3 -19.440001 -43.0462
-12.635 -19.440001 -43.4548
-11.97 -19.440001 -43.668999
-11.305 -19.440001 -43.1758
-10.64 -19.440001 -42.916599
-9.9750004 -19.440001 -43.345001
-9.3100004 -19.440001 -43.5952
-8.6450005 -19.440001 -43.859798
-7.98 -19.440001 -43.991199
-7.3150001 -19.440001 -44.259399
-6.6500001 -19.440001 -44.574402
-5.9850001 -19.440001 -44.916401
-5.3200002 -19.440001 -45.535599
-4.6550002 -19.440001 -45.791199
-3.99 -19.440001 -45.494202
-3.325 -19.440001 -45.139599
-2.6600001 -19.440001 -44.848
-1.995 -19.440001 -45.472599
-1.33 -19.440001 -45.2854
-0.66500002 -19.440001 -45.189999
0 -19.440001 -45.265598
0.66500002 -19.440001 -44.792198
1.33 -19.440001 -44.583401
1.995 -19.440001 -43.780602
2.6600001 -19.440001 -44.214401
3.325 -19.440001 -43.751801
3.99 -19.440001 -43.564602
4.6550002 -19.440001 -44.407001
