# .PCD v0.7 - Point Cloud Data file format
VERSION 0.7
FIELDS x y z
SIZE 4 4 4
TYPE F F F
COUNT 1 1 1
WIDTH 1828
HEIGHT 1
VIEWPOINT 0 0 0 1 0 0 0
POINTS 1828
DATA ascii
61.845001 -1.08 -48.597401
62.509998 -1.08 -48.818802
63.174999 -1.08 -48.944801
63.84 -1.08 -49.461399
64.504997 -1.08 -49.637798
65.169998 -1.08 -49.920399
65.834999 -1.08 -50.653
66.5 -1.08 -50.7052
67.165001 -1.08 -51.157001
67.830002 -1.08 -51.387402
68.495003 -1.08 -51.813999
69.160004 -1.08 -52.237
69.824997 -1.08 -52.911999
70.489998 -1.08 -53.666199
71.154999 -1.08 -54.215199
71.82 -1.08 -54.478001
72.485001 -1.08 -55.028801
73.150002 -1.08 -55.6408
73.815002 -1.08 -56.301399
74.480003 -1.08 -57.017799
75.144997 -1.08 -58.050999
75.809998 -1.08 -inf
76.474998 -1.08 -inf
77.139999 -1.08 -inf
77.805 -1.08 -inf
78.470001 -1.08 -inf
79.135002 -1.08 -inf
-59.185001 -0.36000001 -inf
-58.52 -0.36000001 -inf
-57.855 -0.36000001 -inf
-57.189999 -0.36000001 -inf
-56.525002 -0.36000001 -inf
-55.860001 -0.36000001 -inf
-55.195 -0.36000001 -inf
-54.529999 -0.36000001 -inf
-53.865002 -0.36000001 -inf
-53.200001 -0.36000001 -inf
-52.535 -0.36000001 -inf
-51.869999 -0.36000001 -inf
-51.205002 -0.36000001 -inf
-50.540001 -0.36000001 -58.686401
-49.875 -0.36000001 -57.997002
-49.209999 -0.36000001 -57.7486
-48.544998 -0.36000001 -58.123001
-47.880001 -0.36000001 -58.266998
-47.215 -0.36000001 -58.202202
-46.549999 -0.36000001 -57.842201
-45.884998 -0.36000001 -58.288601
-45.220001 -0.36000001 -59.3596
-44.555 -0.36000001 -59.955399
-43.889999 -0.36000001 -60.295601
-43.224998 -0.36000001 -60.1642
-42.560001 -0.36000001 -59.8456
-41.895 -0.36000001 -59.625999
-41.23 -0.36000001 -59.8978
-40.564999 -0.36000001 -59.2822
-39.900002 -0.36000001 -59.327202
-39.235001 -0.36000001 -59.202999
-38.57 -0.36000001 -58.880798
-37.904999 -0.36000001 -58.5802
-37.240002 -0.36000001 -57.998798
-36.575001 -0.36000001 -57.845798
-35.91 -0.36000001 -57.678398
-35.244999 -0.36000001 -57.8008
-34.580002 -0.36000001 -58.153599
-33.915001 -0.36000001 -57.381401
-33.25 -0.36000001 -57.466
-32.584999 -0.36000001 -57.5686
-31.92 -0.36000001 -57.316601
-31.254999 -0.36000001 -56.992599
-30.59 -0.36000001 -57.086201
-29.924999 -0.36000001 -56.603802
-29.26 -0.36000001 -55.093601
-28.594999 -0.36000001 -53.7328
-27.93 -0.36000001 -53.487999
-27.264999 -0.36000001 -53.054199
-26.6 -0.36000001 -52.8274
-25.934999 -0.36000001 -52.332401
-25.27 -0.36000001 -51.518799
-24.605 -0.36000001 -50.9482
-23.940001 -0.36000001 -50.6278
-23.275 -0.36000001 -50.532398
-22.610001 -0.36000001 -50.365002
-21.945 -0.36000001 -49.990601
-21.280001 -0.36000001 -50.1814
-20.615 -0.36000001 -49.861
-19.950001 -0.36000001 -49.639599
-19.285 -0.36000001 -49.484798
-18.620001 -0.36000001 -49.276001
-17.955 -0.36000001 -49.283199
-17.290001 -0.36000001 -49.140999
-16.625 -0.36000001 -48.9412
-15.96 -0.36000001 -48.872799
-15.295 -0.36000001 -48.52
-14.63 -0.36000001 -48.192402
-13.965 -0.36000001 -47.971001
-13.3 -0.36000001 -47.965599
-12.635 -0.36000001 -47.619999
-11.97 -0.36000001 -47.375198
-11.305 -0.36000001 -47.247398
-10.64 -0.36000001 -47.188
-9.9750004 -0.36000001 -46.835201
-9.3100004 -0.36000001 -46.657001
-8.6450005 -0.36000001 -46.234001
-7.98 -0.36000001 -46.396
-7.3150001 -0.36000001 -46.401402
-6.6500001 -0.36000001 -46.133202
-5.9850001 -0.36000001 -46.239399
-5.3200002 -0.36000001 -45.915401
-4.6550002 -0.36000001 -45.780399
-3.99 -0.36000001 -45.031601
-3.325 -0.36000001 -44.946999
-2.6600001 -0.36000001 -44.497002
-1.995 -0.36000001 -44.650002
-1.33 -0.36000001 -44.8228
-0.66500002 -0.36000001 -44.4772
0 -0.36000001 -43.969601
0.66500002 -0.36000001 -44.063202
1.33 -0.36000001 -43.933601
1.995 -0.36000001 -43.794998
2.6600001 -0.36000001 -43.575401
3.325 -0.36000001 -43.307201
3.99 -0.36000001 -43.184799
4.6550002 -0.36000001 -43.0354
5.3200002 -0.36000001 -42.8554
5.9850001 -0.36000001 -42.578201
6.6500001 -0.36000001 -42.581799
7.3150001 -0.36000001 -42.527802
7.98 -0.36000001 -42.337002
8.6450005 -0.36000001 -42.288399
9.3100004 -0.36000001 -42.2272
9.9750004 -0.36000001 -42.092201
10.64 -0.36000001 -41.557598
11.305 -0.36000001 -41.445999
11.97 -0.36000001 -41.246201
12.635 -0.36000001 -41.118401
13.3 -0.36000001 -41.404598
13.965 -0.36000001 -41.022999
14.63 -0.36000001 -40.853802
15.295 -0.36000001 -40.596401
15.96 -0.36000001 -40.339001
16.625 -0.36000001 -40.223801
17.290001 -0.36000001 -40.445202
17.955 -0.36000001 -40.254398
18.620001 -0.36000001 -39.6712
19.285 -0.36000001 -39.241001
19.950001 -0.36000001 -39.1492
20.615 -0.36000001 -39.2644
21.280001 -0.36000001 -39.039398
21.945 -0.36000001 -38.6866
22.610001 -0.36000001 -38.634399
23.275 -0.36000001 -38.438202
23.940001 -0.36000001 -38.1754
24.605 -0.36000001 -38.159199
25.27 -0.36000001 -37.898201
25.934999 -0.36000001 -37.655201
26.6 -0.36000001 -38.1898
27.264999 -0.36000001 -37.7272
27.93 -0.36000001 -37.439201
28.594999 -0.36000001 -37.396
29.26 -0.36000001 -37.3204
29.924999 -0.36000001 -36.8452
30.59 -0.36000001 -36.870399
31.254999 -0.36000001 -36.7948
31.92 -0.36000001 -36.632801
32.584999 -0.36000001 -36.530201
33.25 -0.36000001 -36.262001
33.915001 -0.36000001 -36.191799
34.580002 -0.36000001 -35.776001
35.244999 -0.36000001 -35.727402
35.91 -0.36000001 -35.536598
36.575001 -0.36000001 -35.470001
37.240002 -0.36000001 -35.525799
37.904999 -0.36000001 -35.676998
38.57 -0.36000001 -35.603199
39.235001 -0.36000001 -35.514999
39.900002 -0.36000001 -35.2864
40.564999 -0.36000001 -35.424999
41.23 -0.36000001 -35.525799
41.895 -0.36000001 -35.433998
42.560001 -0.36000001 -35.333199
43.224998 -0.36000001 -35.320599
43.889999 -0.36000001 -35.387199
44.555 -0.36000001 -35.633801
45.220001 -0.36000001 -35.599602
45.884998 -0.36000001 -35.965
46.549999 -0.36000001 -36.951401
47.215 -0.36000001 -37.5256
47.880001 -0.36000001 -38.250999
48.544998 -0.36000001 -38.756802
49.209999 -0.36000001 -39.124001
49.875 -0.36000001 -39.7882
50.540001 -0.36000001 -40.366001
51.205002 -0.36000001 -40.7458
51.869999 -0.36000001 -40.736801
52.535 -0.36000001 -39.910599
53.200001 -0.36000001 -39.899799
53.865002 -0.36000001 -40.1842
54.529999 -0.36000001 -40.6054
55.195 -0.36000001 -41.4226
55.860001 -0.36000001 -42.4468
56.525002 -0.36000001 -43.337799
57.189999 -0.36000001 -44.0056
57.855 -0.36000001 -44.356602
58.52 -0.36000001 -45.082001
59.185001 -0.36000001 -45.940601
59.849998 -0.36000001 -46.770401
60.514999 -0.36000001 -47.373402
61.18 -0.36000001 -47.992599
61.845001 -0.36000001 -48.640598
62.509998 -0.36000001 -48.817001
63.174999 -0.36000001 -49.0546
63.84 -0.36000001 -49.398399
64.504997 -0.36000001 -49.774601
65.169998 -0.36000001 -49.987
65.834999 -0.36000001 -50.363201
66.5 -0.36000001 -50.634998
67.165001 -0.36000001 -51.103001
67.830002 -0.36000001 -51.358601
68.495003 -0.36000001 -51.896801
69.160004 -0.36000001 -52.4062
69.824997 -0.36000001 -52.841801
70.489998 -0.36000001 -53.729198
71.154999 -0.36000001 -54.026199
71.82 -0.36000001 -54.434799
72.485001 -0.36000001 -55.044998
73.150002 -0.36000001 -55.363602
73.815002 -0.36000001 -55.9594
74.480003 -0.36000001 -56.566002
75.144997 -0.36000001 -57.410198
75.809998 -0.36000001 -inf
76.474998 -0.36000001 -inf
77.139999 -0.36000001 -inf
77.805 -0.36000001 -inf
78.470001 -0.36000001 -inf
79.135002 -0.36000001 -inf
-59.185001 0.36000001 -inf
-58.52 0.36000001 -inf
-57.855 0.36000001 -inf
-57.189999 0.36000001 -inf
-56.525002 0.36000001 -inf
-55.860001 0.36000001 -inf
-55.195 0.36000001 -inf
-54.529999 0.36000001 -inf
-53.865002 0.36000001 -inf
-53.200001 0.36000001 -inf
-52.535 0.36000001 -inf
-51.869999 0.36000001 -inf
-51.205002 0.36000001 -inf
-50.540001 0.36000001 -61.094799
-49.875 0.36000001 -58.036598
-49.209999 0.36000001 -57.554199
-48.544998 0.36000001 -58.0942
-47.880001 0.36000001 -58.293999
-47.215 0.36000001 -58.290401
-46.549999 0.36000001 -57.993401
-45.884998 0.36000001 -60.0994
-45.220001 0.36000001 -59.563
-44.555 0.36000001 -59.671001
-43.889999 0.36000001 -59.6548
-43.224998 0.36000001 -60.065201
-42.560001 0.36000001 -59.8456
-41.895 0.36000001 -59.660198
-41.23 0.36000001 -59.3866
-40.564999 0.36000001 -59.712399
-39.900002 0.36000001 -59.595402
-39.235001 0.36000001 -59.465801
-38.57 0.36000001 -59.4496
-37.904999 0.36000001 -59.202999
-37.240002 0.36000001 -58.193199
-36.575001 0.36000001 -57.917801
-35.91 0.36000001 -57.971802
-35.244999 0.36000001 -58.4506
-34.580002 0.36000001 -57.885399
-33.915001 0.36000001 -58.4524
-33.25 0.36000001 -58.070801
-32.584999 0.36000001 -57.874599
-31.92 0.36000001 -57.539799
-31.254999 0.36000001 -57.528999
-30.59 0.36000001 -57.854801
-29.924999 0.36000001 -57.111401
-29.26 0.36000001 -54.976601
-28.594999 0.36000001 -53.848
-27.93 0.36000001 -53.754398
-27.264999 0.36000001 -53.118999
-26.6 0.36000001 -52.778801
-25.934999 0.36000001 -52.013802
-25.27 0.36000001 -51.5854
-24.605 0.36000001 -50.7682
-23.940001 0.36000001 -50.624199
-23.275 0.36000001 -50.316399
-22.610001 0.36000001 -50.167
-21.945 0.36000001 -49.929401
-21.280001 0.36000001 -49.684601
-20.615 0.36000001 -49.536999
-19.950001 0.36000001 -49.366001
-19.285 0.36000001 -49.295799
-18.620001 0.36000001 -48.950199
-17.955 0.36000001 -48.741402
-17.290001 0.36000001 -48.7342
-16.625 0.36000001 -48.653198
-15.96 0.36000001 -48.5452
-15.295 0.36000001 -48.1978
-14.63 0.36000001 -47.974602
-13.965 0.36000001 -47.875599
-13.3 0.36000001 -47.818001
-12.635 0.36000001 -47.3536
-11.97 0.36000001 -47.403999
-11.305 0.36000001 -47.207802
-10.64 0.36000001 -47.2258
-9.9750004 0.36000001 -46.543598
-9.3100004 0.36000001 -46.431999
-8.6450005 0.36000001 -46.27
-7.98 0.36000001 -46.0126
-7.3150001 0.36000001 -46.005402
-6.6500001 0.36000001 -45.7318
-5.9850001 0.36000001 -45.645401
-5.3200002 0.36000001 -45.405998
-4.6550002 0.36000001 -45.6436
-3.99 0.36000001 -45.522999
-3.325 0.36000001 -44.916401
-2.6600001 0.36000001 -44.558201
-1.995 0.36000001 -45.101799
-1.33 0.36000001 -44.412399
-0.66500002 0.36000001 -44.2216
0 0.36000001 -43.937199
0.66500002 0.36000001 -43.908401
1.33 0.36000001 -43.705002
1.995 0.36000001 -43.389999
2.6600001 0.36000001 -43.433201
3.325 0.36000001 -43.362999
3.99 0.36000001 -43.092999
4.6550002 0.36000001 -42.936401
5.3200002 0.36000001 -42.7672
5.9850001 0.36000001 -42.565601
6.6500001 0.36000001 -42.5872
7.3150001 0.36000001 -42.360401
7.98 0.36000001 -42.2164
8.6450005 0.36000001 -41.9734
9.3100004 0.36000001 -41.778999
9.9750004 0.36000001 -42.157001
10.64 0.36000001 -41.3848
11.305 0.36000001 -41.3326
11.97 0.36000001 -41.003201
12.635 0.36000001 -40.9744
13.3 0.36000001 -40.907799
13.965 0.36000001 -41.012199
14.63 0.36000001 -40.716999
15.295 0.36000001 -40.743999
15.96 0.36000001 -40.313801
16.625 0.36000001 -40.419998
17.290001 0.36000001 -40.5424
17.955 0.36000001 -40.214802
18.620001 0.36000001 -39.521801
19.285 0.36000001 -39.448002
19.950001 0.36000001 -39.16
20.615 0.36000001 -38.945801
21.280001 0.36000001 -38.810799
21.945 0.36000001 -38.798199
22.610001 0.36000001 -38.582199
23.275 0.36000001 -38.438202
23.940001 0.36000001 -38.364399
24.605 0.36000001 -38.218601
25.27 0.36000001 -37.892799
25.934999 0.36000001 -37.444599
26.6 0.36000001 -37.595798
27.264999 0.36000001 -37.415798
27.93 0.36000001 -37.284401
28.594999 0.36000001 -37.540001
29.26 0.36000001 -37
29.924999 0.36000001 -36.828999
30.59 0.36000001 -36.874001
31.254999 0.36000001 -36.674198
31.92 0.36000001 -36.5158
32.584999 0.36000001 -36.557201
33.25 0.36000001 -36.3862
33.915001 0.36000001 -36.274601
34.580002 0.36000001 -35.999199
35.244999 0.36000001 -35.916401
35.91 0.36000001 -35.729198
36.575001 0.36000001 -35.487999
37.240002 0.36000001 -35.189201
37.904999 0.36000001 -35.3008
38.57 0.36000001 -35.4646
39.235001 0.36000001 -35.405201
39.900002 0.36000001 -35.164001
40.564999 0.36000001 -35.4664
41.23 0.36000001 -35.365601
41.895 0.36000001 -35.209
42.560001 0.36000001 -35.1982
43.224998 0.36000001 -35.307999
43.889999 0.36000001 -35.378201
44.555 0.36000001 -35.527599
45.220001 0.36000001 -35.623001
45.884998 0.36000001 -35.945202
46.549999 0.36000001 -37.086399
47.215 0.36000001 -37.500401
47.880001 0.36000001 -37.999001
48.544998 0.36000001 -39.215801
49.209999 0.36000001 -39.354401
49.875 0.36000001 -39.591999
50.540001 0.36000001 -39.8494
51.205002 0.36000001 -40.124802
51.869999 0.36000001 -40.077999
52.535 0.36000001 -39.7108
53.200001 0.36000001 -39.678398
53.865002 0.36000001 -40.052799
54.529999 0.36000001 -40.497398
55.195 0.36000001 -41.554001
55.860001 0.36000001 -42.2542
56.525002 0.36000001 -43.4062
57.189999 0.36000001 -43.991199
57.855 0.36000001 -44.421398
58.52 0.36000001 -44.997398
59.185001 0.36000001 -45.7444
59.849998 0.36000001 -46.576
60.514999 0.36000001 -47.173599
61.18 0.36000001 -47.702801
61.845001 0.36000001 -48.2878
62.509998 0.36000001 -48.7108
63.174999 0.36000001 -48.8134
63.84 0.36000001 -49.112202
64.504997 0.36000001 -49.612598
65.169998 0.36000001 -49.979801
65.834999 0.36000001 -50.301998
66.5 0.36000001 -50.649399
67.165001 0.36000001 -51.110199
67.830002 0.36000001 -51.416199
68.495003 0.36000001 -51.794201
69.160004 0.36000001 -52.260399
69.824997 0.36000001 -52.903
70.489998 0.36000001 -53.570801
71.154999 0.36000001 -54.028
71.82 0.36000001 -54.3232
72.485001 0.36000001 -54.6796
73.150002 0.36000001 -55.181801
73.815002 0.36000001 -55.628201
74.480003 0.36000001 -56.152
75.144997 0.36000001 -56.888199
75.809998 0.36000001 -58.050999
76.474998 0.36000001 -inf
77.139999 0.36000001 -inf
77.805 0.36000001 -inf
78.470001 0.36000001 -inf
79.135002 0.36000001 -inf
-59.185001 1.08 -inf
-58.52 1.08 -inf
-57.855 1.08 -inf
-57.189999 1.08 -inf
-56.525002 1.08 -inf
-55.860001 1.08 -inf
-55.195 1.08 -inf
-54.529999 1.08 -inf
-53.865002 1.08 -inf
-53.200001 1.08 -inf
-52.535 1.08 -inf
-51.869999 1.08 -inf
-51.205002 1.08 -inf
-50.540001 1.08 -60.533199
-49.875 1.08 -59.951801
-49.209999 1.08 -59.453201
-48.544998 1.08 -59.361401
-47.880001 1.08 -59.114799
-47.215 1.08 -59.5126
-46.549999 1.08 -59.804199
-45.884998 1.08 -60.479198
-45.220001 1.08 -60.157001
-44.555 1.08 -60.144402
-43.889999 1.08 -60.461201
-43.224998 1.08 -60.383801
-42.560001 1.08 -60.327999
-41.895 1.08 -60.202
-41.23 1.08 -60.002201
-40.564999 1.08 -60.2794
-39.900002 1.08 -59.860001
-39.235001 1.08 -59.32
-38.57 1.08 -59.311001
-37.904999 1.08 -59.0644
-37.240002 1.08 -58.711601
-36.575001 1.08 -58.801601
-35.91 1.08 -57.854801
-35.244999 1.08 -58.088799
-34.580002 1.08 -58.483002
-33.915001 1.08 -58.124802
-33.25 1.08 -58.101398
-32.584999 1.08 -57.858398
-31.92 1.08 -57.2896
-31.254999 1.08 -57.4174
-30.59 1.08 -57.584801
-29.924999 1.08 -57.8368
-29.26 1.08 -56.231201
-28.594999 1.08 -53.725601
-27.93 1.08 -53.8498
-27.264999 1.08 -52.848999
-26.6 1.08 -52.831001
-25.934999 1.08 -52.695999
-25.27 1.08 -51.9436
-24.605 1.08 -51.207401
-23.940001 1.08 -50.579201
-23.275 1.08 -50.338001
-22.610001 1.08 -49.981602
-21.945 1.08 -49.6828
-21.280001 1.08 -49.866402
-20.615 1.08 -49.500999
-19.950001 1.08 -49.304798
-19.285 1.08 -49.191399
-18.620001 1.08 -48.7864
-17.955 1.08 -48.590199
-17.290001 1.08 -48.527199
-16.625 1.08 -48.424599
-15.96 1.08 -48.3022
-15.295 1.08 -48.266201
-14.63 1.08 -47.988998
-13.965 1.08 -47.745998
-13.3 1.08 -47.3536
-12.635 1.08 -47.1628
-11.97 1.08 -47.204201
-11.305 1.08 -46.945
-10.64 1.08 -47.254601
-9.9750004 1.08 -46.478802
-9.3100004 1.08 -46.2052
-8.6450005 1.08 -46.158401
-7.98 1.08 -46.005402
-7.3150001 1.08 -45.765999
-6.6500001 1.08 -45.697601
-5.9850001 1.08 -45.289001
-5.3200002 1.08 -44.986599
-4.6550002 1.08 -45.209801
-3.99 1.08 -45.008202
-3.325 1.08 -44.662601
-2.6600001 1.08 -44.6068
-1.995 1.08 -44.8498
-1.33 1.08 -44.189201
-0.66500002 1.08 -44.203602
0 1.08 -44.074001
0.66500002 1.08 -43.562801
1.33 1.08 -43.515999
1.995 1.08 -43.345001
2.6600001 1.08 -43.075001
3.325 1.08 -43.091202
3.99 1.08 -43.092999
4.6550002 1.08 -42.531399
5.3200002 1.08 -42.7672
5.9850001 1.08 -42.617802
6.6500001 1.08 -42.466599
7.3150001 1.08 -42.1516
7.98 1.08 -42.351398
8.6450005 1.08 -41.771801
9.3100004 1.08 -42.221802
9.9750004 1.08 -41.836601
10.64 1.08 -41.458599
11.305 1.08 -41.510799
11.97 1.08 -41.005001
12.635 1.08 -40.929401
13.3 1.08 -40.506401
13.965 1.08 -40.614399
14.63 1.08 -40.6054
15.295 1.08 -40.5784
15.96 1.08 -40.200401
16.625 1.08 -40.380402
17.290001 1.08 -39.935799
17.955 1.08 -39.7234
18.620001 1.08 -39.145599
19.285 1.08 -39.356201
19.950001 1.08 -39.1996
20.615 1.08 -39.260799
21.280001 1.08 -38.938599
21.945 1.08 -38.434601
22.610001 1.08 -38.512001
23.275 1.08 -38.254601
23.940001 1.08 -38.306801
24.605 1.08 -38.117802
25.27 1.08 -38.0728
25.934999 1.08 -37.541801
26.6 1.08 -37.721802
27.264999 1.08 -37.403198
27.93 1.08 -37.3438
28.594999 1.08 -37.374401
29.26 1.08 -37.5238
29.924999 1.08 -37.194401
30.59 1.08 -36.7174
31.254999 1.08 -36.841599
31.92 1.08 -36.596802
32.584999 1.08 -36.557201
33.25 1.08 -36.271
33.915001 1.08 -36.357399
34.580002 1.08 -36.361
35.244999 1.08 -35.487999
35.91 1.08 -36.047798
36.575001 1.08 -35.144199
37.240002 1.08 -34.753601
37.904999 1.08 -34.872398
38.57 1.08 -35.358398
39.235001 1.08 -35.4394
39.900002 1.08 -35.444801
40.564999 1.08 -35.329601
41.23 1.08 -35.612202
41.895 1.08 -35.3368
42.560001 1.08 -35.282799
43.224998 1.08 -35.430401
43.889999 1.08 -35.203602
44.555 1.08 -35.4016
45.220001 1.08 -35.691399
45.884998 1.08 -36.098202
46.549999 1.08 -37.185398
47.215 1.08 -37.351002
47.880001 1.08 -38.0998
48.544998 1.08 -38.360802
49.209999 1.08 -39.050201
49.875 1.08 -39.1852
50.540001 1.08 -39.613602
51.205002 1.08 -39.9268
51.869999 1.08 -39.167198
52.535 1.08 -39.361599
53.200001 1.08 -39.563202
53.865002 1.08 -39.757599
54.529999 1.08 -40.288601
55.195 1.08 -41.253399
55.860001 1.08 -42.142601
56.525002 1.08 -43.004799
57.189999 1.08 -43.919201
57.855 1.08 -44.443001
58.52 1.08 -45.060398
59.185001 1.08 -45.6022
59.849998 1.08 -46.639
60.514999 1.08 -47.116001
61.18 1.08 -47.621799
61.845001 1.08 -48.285999
62.509998 1.08 -48.462399
63.174999 1.08 -48.818802
63.84 1.08 -49.383999
64.504997 1.08 -49.555
65.169998 1.08 -49.816002
65.834999 1.08 -50.330799
66.5 1.08 -50.8456
67.165001 1.08 -51.128201
67.830002 1.08 -51.538601
68.495003 1.08 -51.832001
69.160004 1.08 -52.3522
69.824997 1.08 -52.843601
70.489998 1.08 -53.3512
71.154999 1.08 -53.873199
71.82 1.08 -54.191799
72.485001 1.08 -54.442001
73.150002 1.08 -54.852402
73.815002 1.08 -55.365398
74.480003 1.08 -55.8298
75.144997 1.08 -56.4328
75.809998 1.08 -57.251801
76.474998 1.08 -inf
77.139999 1.08 -inf
77.805 1.08 -inf
78.470001 1.08 -inf
79.135002 1.08 -inf
-59.185001 1.8 -inf
-58.52 1.8 -inf
-57.855 1.8 -inf
-57.189999 1.8 -inf
-56.525002 1.8 -inf
-55.860001 1.8 -inf
-55.195 1.8 -inf
-54.529999 1.8 -inf
-53.865002 1.8 -inf
-53.200001 1.8 -inf
-52.535 1.8 -inf
-51.869999 1.8 -inf
-51.205002 1.8 -inf
-50.540001 1.8 -60.743801
-49.875 1.8 -60.166
-49.209999 1.8 -60.491798
-48.544998 1.8 -60.569199
-47.880001 1.8 -59.77
-47.215 1.8 -59.881599
-46.549999 1.8 -60.6628
-45.884998 1.8 -60.630402
-45.220001 1.8 -60.430599
-44.555 1.8 -60.237999
-43.889999 1.8 -60.750999
-43.224998 1.8 -60.448601
-42.560001 1.8 -59.9086
-41.895 1.8 -60.257801
-41.23 1.8 -60.378399
-40.564999 1.8 -59.775398
-39.900002 1.8 -60.117401
-39.235001 1.8 -59.986
-38.57 1.8 -59.671001
-37.904999 1.8 -58.979801
-37.240002 1.8 -58.4146
-36.575001 1.8 -58.279598
-35.91 1.8 -58.544201
-35.244999 1.8 -58.4146
-34.580002 1.8 -57.930401
-33.915001 1.8 -58.014999
-33.25 1.8 -58.002399
-32.584999 1.8 -57.5956
-31.92 1.8 -57.807999
-31.254999 1.8 -57.493
-30.59 1.8 -57.847599
-29.924999 1.8 -57.3904
-29.26 1.8 -56.791
-28.594999 1.8 -53.839001
-27.93 1.8 -53.549198
-27.264999 1.8 -52.663601
-26.6 1.8 -52.334202
-25.934999 1.8 -52.174
-25.27 1.8 -52.048
-24.605 1.8 -51.068802
-23.940001 1.8 -50.6134
-23.275 1.8 -50.5378
-22.610001 1.8 -49.839401
-21.945 1.8 -49.952801
-21.280001 1.8 -49.366001
-20.615 1.8 -49.193199
-19.950001 1.8 -49.375
-19.285 1.8 -49.040199
-18.620001 1.8 -48.795399
-17.955 1.8 -48.446201
-17.290001 1.8 -48.421001
-16.625 1.8 -48.318401
-15.96 1.8 -48.064602
-15.295 1.8 -48.086201
-14.63 1.8 -47.8162
-13.965 1.8 -47.344601
-13.3 1.8 -47.528198
-12.635 1.8 -47.051201
-11.97 1.8 -46.900002
-11.305 1.8 -46.683998
-10.64 1.8 -46.466202
-9.9750004 1.8 -46.374401
-9.3100004 1.8 -46.071999
-8.6450005 1.8 -45.978401
-7.98 1.8 -45.708401
-7.3150001 1.8 -45.422199
-6.6500001 1.8 -45.294399
-5.9850001 1.8 -45.3088
-5.3200002 1.8 -44.995602
-4.6550002 1.8 -44.973999
-3.99 1.8 -44.804798
-3.325 1.8 -44.498798
-2.6600001 1.8 -44.209
-1.995 1.8 -44.122601
-1.33 1.8 -44.216202
-0.66500002 1.8 -44.307999
0 1.8 -43.966
0.66500002 1.8 -43.746399
1.33 1.8 -43.370201
1.995 1.8 -43.656399
2.6600001 1.8 -42.857201
3.325 1.8 -42.625
3.99 1.8 -42.823002
4.6550002 1.8 -42.778
5.3200002 1.8 -42.691601
5.9850001 1.8 -42.4594
6.6500001 1.8 -42.054401
7.3150001 1.8 -42.160599
7.98 1.8 -42.009399
8.6450005 1.8 -41.528801
9.3100004 1.8 -41.681801
9.9750004 1.8 -41.906799
10.64 1.8 -41.622398
11.305 1.8 -41.2444
11.97 1.8 -40.907799
12.635 1.8 -40.792599
13.3 1.8 -41.035599
13.965 1.8 -40.366001
14.63 1.8 -40.6702
15.295 1.8 -40.461399
15.96 1.8 -40.110401
16.625 1.8 -40.150002
17.290001 1.8 -39.687401
17.955 1.8 -39.474998
18.620001 1.8 -39.205002
19.285 1.8 -39.152802
19.950001 1.8 -39.2248
20.615 1.8 -39.4282
21.280001 1.8 -38.908001
21.945 1.8 -38.551601
22.610001 1.8 -38.614601
23.275 1.8 -38.798199
23.940001 1.8 -38.506599
24.605 1.8 -38.2906
25.27 1.8 -37.8046
25.934999 1.8 -37.750599
26.6 1.8 -37.552601
27.264999 1.8 -37.367199
27.93 1.8 -37.565201
28.594999 1.8 -37.309601
29.26 1.8 -37.151199
29.924999 1.8 -37.091801
30.59 1.8 -36.789398
31.254999 1.8 -37.021599
31.92 1.8 -36.4492
32.584999 1.8 -36.2728
33.25 1.8 -35.9902
33.915001 1.8 -35.876801
34.580002 1.8 -36.063999
35.244999 1.8 -35.6824
35.91 1.8 -35.054199
36.575001 1.8 -34.751801
37.240002 1.8 -34.4422
37.904999 1.8 -34.773399
38.57 1.8 -35.596001
39.235001 1.8 -35.178398
39.900002 1.8 -35.176601
40.564999 1.8 -35.545601
41.23 1.8 -35.430401
41.895 1.8 -35.408798
42.560001 1.8 -35.225201
43.224998 1.8 -35.2216
43.889999 1.8 -35.6446
44.555 1.8 -35.5672
45.220001 1.8 -35.576199
45.884998 1.8 -36.3358
46.549999 1.8 -37.381599
47.215 1.8 -37.606602
47.880001 1.8 -38.116001
48.544998 1.8 -38.602001
49.209999 1.8 -39.035801
49.875 1.8 -39.167198
50.540001 1.8 -39.584801
51.205002 1.8 -39.6064
51.869999 1.8 -39.179798
52.535 1.8 -39.214001
53.200001 1.8 -39.311199
53.865002 1.8 -39.597401
54.529999 1.8 -40.0564
55.195 1.8 -41.021198
55.860001 1.8 -41.757401
56.525002 1.8 -42.7672
57.189999 1.8 -43.8508
57.855 1.8 -44.587002
58.52 1.8 -45.096401
59.185001 1.8 -45.568001
59.849998 1.8 -46.129601
60.514999 1.8 -46.800999
61.18 1.8 -47.8018
61.845001 1.8 -47.9692
62.509998 1.8 -48.458801
63.174999 1.8 -48.817001
63.84 1.8 -49.0798
64.504997 1.8 -49.779999
65.169998 1.8 -49.943802
65.834999 1.8 -50.2192
66.5 1.8 -50.7808
67.165001 1.8 -51.043598
67.830002 1.8 -51.5098
68.495003 1.8 -52.155998
69.160004 1.8 -52.264
69.824997 1.8 -52.820202
70.489998 1.8 -53.297199
71.154999 1.8 -53.613998
71.82 1.8 -53.907398
72.485001 1.8 -54.101799
73.150002 1.8 -54.607601
73.815002 1.8 -55.041401
74.480003 1.8 -55.504002
75.144997 1.8 -56.0854
75.809998 1.8 -56.925999
76.474998 1.8 -inf
77.139999 1.8 -inf
77.805 1.8 -inf
78.470001 1.8 -inf
79.135002 1.8 -inf
-59.185001 2.52 -inf
-58.52 2.52 -inf
-57.855 2.52 -inf
-57.189999 2.52 -inf
-56.525002 2.52 -inf
-55.860001 2.52 -inf
-55.195 2.52 -inf
-54.529999 2.52 -inf
-53.865002 2.52 -inf
-53.200001 2.52 -inf
-52.535 2.52 -inf
-51.869999 2.52 -inf
-51.205002 2.52 -inf
-50.540001 2.52 -inf
-49.875 2.52 -60.769001
-49.209999 2.52 -60.480999
-48.544998 2.52 -60.0886
-47.880001 2.52 -59.964401
-47.215 2.52 -60.200199
-46.549999 2.52 -60.594398
-45.884998 2.52 -61.1506
-45.220001 2.52 -60.601601
-44.555 2.52 -60.655602
-43.889999 2.52 -61.125401
-43.224998 2.52 -60.912998
-42.560001 2.52 -60.115601
-41.895 2.52 -60.698799
-41.23 2.52 -60.5116
-40.564999 2.52 -60.4324
-39.900002 2.52 -60.308201
-39.235001 2.52 -59.494598
-38.57 2.52 -59.986
-37.904999 2.52 -59.314602
-37.240002 2.52 -59.167
-36.575001 2.52 -59.033798
-35.91 2.52 -58.9762
-35.244999 2.52 -58.295799
-34.580002 2.52 -58.020401
-33.915001 2.52 -58.058201
-33.25 2.52 -57.932201
-32.584999 2.52 -57.959202
-31.92 2.52 -57.449799
-31.254999 2.52 -57.410198
-30.59 2.52 -57.190601
-29.924999 2.52 -57.179798
-29.26 2.52 -56.7784
-28.594999 2.52 -55.424801
-27.93 2.52 -53.6968
-27.264999 2.52 -53.180199
-26.6 2.52 -52.591599
-25.934999 2.52 -52.039001
-25.27 2.52 -51.455799
-24.605 2.52 -51.131802
-23.940001 2.52 -50.464001
-23.275 2.52 -50.188599
-22.610001 2.52 -50.069801
-21.945 2.52 -49.855598
-21.280001 2.52 -49.879002
-20.615 2.52 -49.806999
-19.950001 2.52 -49.205799
-19.285 2.52 -48.8908
-18.620001 2.52 -48.827801
-17.955 2.52 -48.626202
-17.290001 2.52 -48.208599
-16.625 2.52 -48.183399
-15.96 2.52 -48.1492
-15.295 2.52 -47.9296
-14.63 2.52 -47.490398
-13.965 2.52 -47.1772
-13.3 2.52 -47.2798
-12.635 2.52 -47.117802
-11.97 2.52 -46.570599
-11.305 2.52 -46.329399
-10.64 2.52 -46.1926
-9.9750004 2.52 -45.9874
-9.3100004 2.52 -45.9118
-8.6450005 2.52 -45.913601
-7.98 2.52 -45.4744
-7.3150001 2.52 -45.524799
-6.6500001 2.52 -45.101799
-5.9850001 2.52 -45.290798
-5.3200002 2.52 -44.848
-4.6550002 2.52 -44.9146
-3.99 2.52 -44.587002
-3.325 2.52 -44.3494
-2.6600001 2.52 -44.525799
-1.995 2.52 -44.280998
-1.33 2.52 -43.7248
-0.66500002 2.52 -43.848999
0 2.52 -43.3144
0.66500002 2.52 -43.204601
1.33 2.52 -43.3918
1.995 2.52 -43.146999
2.6600001 2.52 -43.1236
3.325 2.52 -42.916599
3.99 2.52 -42.8554
4.6550002 2.52 -42.567402
5.3200002 2.52 -42.504398
5.9850001 2.52 -42.3172
6.6500001 2.52 -41.950001
7.3150001 2.52 -41.991402
7.98 2.52 -41.636799
8.6450005 2.52 -41.849201
9.3100004 2.52 -42.030998
9.9750004 2.52 -41.748402
10.64 2.52 -41.3344
11.305 2.52 -41.382999
11.97 2.52 -40.841202
12.635 2.52 -40.814201
13.3 2.52 -40.621601
13.965 2.52 -40.587399
14.63 2.52 -40.5424
15.295 2.52 -40.6306
15.96 2.52 -40.126598
16.625 2.52 -40.0546
17.290001 2.52 -39.869202
17.955 2.52 -39.579399
18.620001 2.52 -39.617199
19.285 2.52 -39.311199
19.950001 2.52 -38.978199
20.615 2.52 -39.183399
21.280001 2.52 -38.951199
21.945 2.52 -38.709999
22.610001 2.52 -38.6632
23.275 2.52 -38.2006
23.940001 2.52 -38.567799
24.605 2.52 -38.045799
25.27 2.52 -37.914398
25.934999 2.52 -37.6642
26.6 2.52 -37.507599
27.264999 2.52 -37.4716
27.93 2.52 -37.3564
28.594999 2.52 -37.352798
29.26 2.52 -37.223202
29.924999 2.52 -36.9874
30.59 2.52 -36.7174
31.254999 2.52 -36.600399
31.92 2.52 -36.548199
32.584999 2.52 -36.342999
33.25 2.52 -35.880402
33.915001 2.52 -35.642799
34.580002 2.52 -35.833599
35.244999 2.52 -35.783199
35.91 2.52 -34.8274
36.575001 2.52 -34.537601
37.240002 2.52 -34.629398
37.904999 2.52 -34.7896
38.57 2.52 -35.173
39.235001 2.52 -35.237801
39.900002 2.52 -35.722
40.564999 2.52 -35.1712
41.23 2.52 -35.4268
41.895 2.52 -35.891201
42.560001 2.52 -35.387199
43.224998 2.52 -35.334999
43.889999 2.52 -35.280998
44.555 2.52 -35.457401
45.220001 2.52 -35.576199
45.884998 2.52 -36.631001
46.549999 2.52 -37.5994
47.215 2.52 -37.4482
47.880001 2.52 -37.905399
48.544998 2.52 -38.627201
49.209999 2.52 -38.756802
49.875 2.52 -38.436401
50.540001 2.52 -38.837799
51.205002 2.52 -39.188801
51.869999 2.52 -38.940399
52.535 2.52 -38.988998
53.200001 2.52 -39.34
53.865002 2.52 -39.34
54.529999 2.52 -39.887199
55.195 2.52 -40.879002
55.860001 2.52 -41.726799
56.525002 2.52 -42.495399
57.189999 2.52 -43.75
57.855 2.52 -44.664398
58.52 2.52 -45.213402
59.185001 2.52 -46.0126
59.849998 2.52 -46.3186
60.514999 2.52 -46.858601
61.18 2.52 -47.341
61.845001 2.52 -47.962002
62.509998 2.52 -48.3004
63.174999 2.52 -48.622601
63.84 2.52 -48.943001
64.504997 2.52 -49.319199
65.169998 2.52 -49.726002
65.834999 2.52 -50.330799
66.5 2.52 -50.699799
67.165001 2.52 -51.221802
67.830002 2.52 -51.592602
68.495003 2.52 -51.985001
69.160004 2.52 -52.312599
69.824997 2.52 -52.602402
70.489998 2.52 -53.118999
71.154999 2.52 -53.354801
71.82 2.52 -53.702202
72.485001 2.52 -54.091
73.150002 2.52 -54.316002
73.815002 2.52 -54.8578
74.480003 2.52 -55.243
75.144997 2.52 -55.7812
75.809998 2.52 -56.544399
76.474998 2.52 -inf
77.139999 2.52 -inf
77.805 2.52 -inf
78.470001 2.52 -inf
79.135002 2.52 -inf
-59.185001 3.24 -inf
-58.52 3.24 -inf
-57.855 3.24 -inf
-57.189999 3.24 -inf
-56.525002 3.24 -inf
-55.860001 3.24 -inf
-55.195 3.24 -inf
-54.529999 3.24 -inf
-53.865002 3.24 -inf
-53.200001 3.24 -inf
-52.535 3.24 -inf
-51.869999 3.24 -inf
-51.205002 3.24 -inf
-50.540001 3.24 -inf
-49.875 3.24 -60.733002
-49.209999 3.24 -60.868
-48.544998 3.24 -60.750999
-47.880001 3.24 -60.864399
-47.215 3.24 -60.959801
-46.549999 3.24 -60.941799
-45.884998 3.24 -61.2244
-45.220001 3.24 -61.308998
-44.555 3.24 -61.512402
-43.889999 3.24 -61.231602
-43.224998 3.24 -61.190201
-42.560001 3.24 -60.603401
-41.895 3.24 -60.2668
-41.23 3.24 -60.896801
-40.564999 3.24 -60.2272
-39.900002 3.24 -60.337002
-39.235001 3.24 -60.387402
-38.57 3.24 -60.3694
-37.904999 3.24 -59.4244
-37.240002 3.24 -59.336201
-36.575001 3.24 -59.131001
-35.91 3.24 -58.7332
-35.244999 3.24 -51.617802
-34.580002 3.24 -58.376801
-33.915001 3.24 -58.254398
-33.25 3.24 -57.975399
-32.584999 3.24 -57.780998
-31.92 3.24 -58.0924
-31.254999 3.24 -57.7612
-30.59 3.24 -57.743198
-29.924999 3.24 -57.132999
-29.26 3.24 -56.690201
-28.594999 3.24 -55.901798
-27.93 3.24 -53.896599
-27.264999 3.24 -52.949799
-26.6 3.24 -52.714001
-25.934999 3.24 -52.474602
-25.27 3.24 -51.167801
-24.605 3.24 -51.2794
-23.940001 3.24 -50.885201
-23.275 3.24 -50.406399
-22.610001 3.24 -50.165199
-21.945 3.24 -49.951
-21.280001 3.24 -49.850201
-20.615 3.24 -49.587399
-19.950001 3.24 -49.2346
-19.285 3.24 -48.930401
-18.620001 3.24 -48.8116
-17.955 3.24 -48.638802
-17.290001 3.24 -48.316601
-16.625 3.24 -48.066399
-15.96 3.24 -47.963799
-15.295 3.24 -47.940399
-14.63 3.24 -47.153801
-13.965 3.24 -47.123199
-13.3 3.24 -47.092602
-12.635 3.24 -47.173599
-11.97 3.24 -46.5112
-11.305 3.24 -46.2304
-10.64 3.24 -46.595798
-9.9750004 3.24 -46.005402
-9.3100004 3.24 -45.701199
-8.6450005 3.24 -45.611198
-7.98 3.24 -45.409599
-7.3150001 3.24 -45.379002
-6.6500001 3.24 -45.568001
-5.9850001 3.24 -44.948799
-5.3200002 3.24 -45.0676
-4.6550002 3.24 -44.8498
-3.99 3.24 -44.493401
-3.325 3.24 -44.358398
-2.6600001 3.24 -44.025398
-1.995 3.24 -43.938999
-1.33 3.24 -43.8526
-0.66500002 3.24 -43.624001
0 3.24 -43.335999
0.66500002 3.24 -43.3018
1.33 3.24 -43.321602
1.995 3.24 -43.1632
2.6600001 3.24 -43.0966
3.325 3.24 -43.024601
3.99 3.24 -42.952599
4.6550002 3.24 -42.723999
5.3200002 3.24 -42.320801
5.9850001 3.24 -42.300999
6.6500001 3.24 -42.056198
7.3150001 3.24 -42.052601
7.98 3.24 -41.8186
8.6450005 3.24 -41.699799
9.3100004 3.24 -41.6656
9.9750004 3.24 -41.629601
10.64 3.24 -41.352402
11.305 3.24 -41.235401
11.97 3.24 -40.612598
12.635 3.24 -41.0158
13.3 3.24 -40.951
13.965 3.24 -40.481201
14.63 3.24 -40.601799
15.295 3.24 -40.681
15.96 3.24 -40.263401
16.625 3.24 -39.899799
17.290001 3.24 -40.236401
17.955 3.24 -40.320999
18.620001 3.24 -40.178799
19.285 3.24 -39.348999
19.950001 3.24 -39.422798
20.615 3.24 -39.4678
21.280001 3.24 -39.179798
21.945 3.24 -38.821602
22.610001 3.24 -38.704601
23.275 3.24 -38.7118
23.940001 3.24 -38.242001
24.605 3.24 -37.9216
25.27 3.24 -37.9072
25.934999 3.24 -37.8568
26.6 3.24 -37.674999
27.264999 3.24 -37.5364
27.93 3.24 -37.475201
28.594999 3.24 -37.243
29.26 3.24 -37.1422
29.924999 3.24 -37.068401
30.59 3.24 -36.571602
31.254999 3.24 -36.487
31.92 3.24 -36.639999
32.584999 3.24 -36.483398
33.25 3.24 -36.593201
33.915001 3.24 -35.943401
34.580002 3.24 -35.984798
35.244999 3.24 -35.5546
35.91 3.24 -35.217999
36.575001 3.24 -33.619598
37.240002 3.24 -34.021
37.904999 3.24 -34.283798
38.57 3.24 -34.964199
39.235001 3.24 -35.257599
39.900002 3.24 -35.259399
40.564999 3.24 -35.212601
41.23 3.24 -35.676998
41.895 3.24 -35.416
42.560001 3.24 -35.450199
43.224998 3.24 -35.450199
43.889999 3.24 -35.498798
44.555 3.24 -35.2342
45.220001 3.24 -35.560001
45.884998 3.24 -36.267399
46.549999 3.24 -37.2682
47.215 3.24 -37.363602
47.880001 3.24 -37.820801
48.544998 3.24 -38.215
49.209999 3.24 -38.2132
49.875 3.24 -38.250999
50.540001 3.24 -38.655998
51.205002 3.24 -38.542599
51.869999 3.24 -38.5084
52.535 3.24 -38.709999
53.200001 3.24 -38.810799
53.865002 3.24 -39.0196
54.529999 3.24 -39.5182
55.195 3.24 -40.198601
55.860001 3.24 -41.483799
56.525002 3.24 -42.448601
57.189999 3.24 -43.6726
57.855 3.24 -44.7868
58.52 3.24 -45.312401
59.185001 3.24 -45.967602
59.849998 3.24 -46.417599
60.514999 3.24 -46.937801
61.18 3.24 -47.492199
61.845001 3.24 -47.9422
62.509998 3.24 -48.5308
63.174999 3.24 -48.6604
63.84 3.24 -49.0312
64.504997 3.24 -49.283199
65.169998 3.24 -50.021198
65.834999 3.24 -50.267799
66.5 3.24 -50.707001
67.165001 3.24 -51.002201
67.830002 3.24 -51.606998
68.495003 3.24 -51.886002
69.160004 3.24 -52.357601
69.824997 3.24 -52.4566
70.489998 3.24 -52.987598
71.154999 3.24 -53.162201
71.82 3.24 -53.446602
72.485001 3.24 -53.7472
73.150002 3.24 -54.150398
73.815002 3.24 -54.514
74.480003 3.24 -54.9622
75.144997 3.24 -55.530998
75.809998 3.24 -56.2258
76.474998 3.24 -inf
77.139999 3.24 -inf
77.805 3.24 -inf
78.470001 3.24 -inf
79.135002 3.24 -inf
-59.185001 3.96 -inf
-58.52 3.96 -inf
-57.855 3.96 -inf
-57.189999 3.96 -inf
-56.525002 3.96 -inf
-55.860001 3.96 -inf
-55.195 3.96 -inf
-54.529999 3.96 -inf
-53.865002 3.96 -inf
-53.200001 3.96 -inf
-52.535 3.96 -inf
-51.869999 3.96 -inf
-51.205002 3.96 -inf
-50.540001 3.96 -inf
-49.875 3.96 -62.154999
-49.209999 3.96 -61.354
-48.544998 3.96 -61.170399
-47.880001 3.96 -61.820202
-47.215 3.96 -61.4944
-46.549999 3.96 -61.861599
-45.884998 3.96 -61.397202
-45.220001 3.96 -62.088402
-44.555 3.96 -61.368401
-43.889999 3.96 -61.381001
-43.224998 3.96 -61.445801
-42.560001 3.96 -61.204601
-41.895 3.96 -61.526798
-41.23 3.96 -61.280201
-40.564999 3.96 -60.684399
-39.900002 3.96 -60.383801
-39.235001 3.96 -60.441399
-38.57 3.96 -60.376598
-37.904999 3.96 -59.258801
-37.240002 3.96 -59.255199
-36.575001 3.96 -59.316399
-35.91 3.96 -58.978001
-35.244999 3.96 -58.834
-34.580002 3.96 -58.499199
-33.915001 3.96 -58.257999
-33.25 3.96 -57.768398
-32.584999 3.96 -58.150002
-31.92 3.96 -57.725201
-31.254999 3.96 -57.5056
-30.59 3.96 -57.937599
-29.924999 3.96 -57.433601
-29.26 3.96 -57.141998
-28.594999 3.96 -56.146599
-27.93 3.96 -54.141399
-27.264999 3.96 -54.186401
-26.6 3.96 -52.8022
-25.934999 3.96 -52.643799
-25.27 3.96 -51.839199
-24.605 3.96 -51.250599
-23.940001 3.96 -51.623199
-23.275 3.96 -50.786201
-22.610001 3.96 -49.857399
-21.945 3.96 -49.5676
-21.280001 3.96 -49.6432
-20.615 3.96 -49.230999
-19.950001 3.96 -49.045601
-19.285 3.96 -48.7756
-18.620001 3.96 -48.539799
-17.955 3.96 -48.654999
-17.290001 3.96 -48.572201
-16.625 3.96 -48.102402
-15.96 3.96 -47.818001
-15.295 3.96 -47.5228
-14.63 3.96 -47.299599
-13.965 3.96 -46.871201
-13.3 3.96 -46.838799
-12.635 3.96 -46.790199
-11.97 3.96 -46.367199
-11.305 3.96 -46.129601
-10.64 3.96 -46.457199
-9.9750004 3.96 -46.147598
-9.3100004 3.96 -46.055801
-8.6450005 3.96 -45.929798
-7.98 3.96 -45.605801
-7.3150001 3.96 -45.2854
-6.6500001 3.96 -45.5518
-5.9850001 3.96 -45.4366
-5.3200002 3.96 -45.006401
-4.6550002 3.96 -45.024399
-3.99 3.96 -44.608601
-3.325 3.96 -44.3512
-2.6600001 3.96 -44.304401
-1.995 3.96 -44.2486
-1.33 3.96 -43.665401
-0.66500002 3.96 -43.553799
0 3.96 -43.3414
0.66500002 3.96 -43.1884
1.33 3.96 -43.204601
1.995 3.96 -42.958
2.6600001 3.96 -42.428799
3.325 3.96 -42.502602
3.99 3.96 -42.806801
4.6550002 3.96 -42.776199
5.3200002 3.96 -42.493599
5.9850001 3.96 -42.209202
6.6500001 3.96 -41.996799
7.3150001 3.96 -41.926601
7.98 3.96 -41.798801
8.6450005 3.96 -41.617001
9.3100004 3.96 -41.573799
9.9750004 3.96 -41.582802
10.64 3.96 -41.327202
11.305 3.96 -41.2714
11.97 3.96 -41.1544
12.635 3.96 -41.112999
13.3 3.96 -40.9744
13.965 3.96 -40.637798
14.63 3.96 -40.3498
15.295 3.96 -40.446999
15.96 3.96 -40.213001
16.625 3.96 -40.454201
17.290001 3.96 -40.312
17.955 3.96 -39.887199
18.620001 3.96 -40.002399
19.285 3.96 -39.591999
19.950001 3.96 -39.1996
20.615 3.96 -39.431801
21.280001 3.96 -39.208599
21.945 3.96 -38.733398
22.610001 3.96 -38.6092
23.275 3.96 -38.411201
23.940001 3.96 -38.062
24.605 3.96 -37.945
25.27 3.96 -37.880199
25.934999 3.96 -37.592201
26.6 3.96 -37.496799
27.264999 3.96 -37.579601
27.93 3.96 -37.428398
28.594999 3.96 -37.18
29.26 3.96 -37.028801
29.924999 3.96 -36.890202
30.59 3.96 -36.577
31.254999 3.96 -36.9226
31.92 3.96 -36.472599
32.584999 3.96 -36.290798
33.25 3.96 -36.0406
33.915001 3.96 -36.2314
34.580002 3.96 -35.946999
35.244999 3.96 -35.676998
35.91 3.96 -35.6068
36.575001 3.96 -34.926399
37.240002 3.96 -34.219002
37.904999 3.96 -34.465599
38.57 3.96 -34.982201
39.235001 3.96 -35.025398
39.900002 3.96 -35.228802
40.564999 3.96 -35.178398
41.23 3.96 -35.372799
41.895 3.96 -35.6698
42.560001 3.96 -35.844398
43.224998 3.96 -35.813801
43.889999 3.96 -35.754398
44.555 3.96 -35.329601
45.220001 3.96 -35.354801
45.884998 3.96 -36.116199
46.549999 3.96 -36.926201
47.215 3.96 -37.010799
47.880001 3.96 -37.6642
48.544998 3.96 -37.889198
49.209999 3.96 -37.8964
49.875 3.96 -37.855
50.540001 3.96 -38.243801
51.205002 3.96 -38.123199
51.869999 3.96 -37.980999
52.535 3.96 -38.2906
53.200001 3.96 -38.434601
53.865002 3.96 -38.466999
54.529999 3.96 -39.0322
55.195 3.96 -39.8368
55.860001 3.96 -41.201199
56.525002 3.96 -42.310001
57.189999 3.96 -43.447601
57.855 3.96 -45.146801
58.52 3.96 -45.5266
59.185001 3.96 -45.978401
59.849998 3.96 -46.5256
60.514999 3.96 -47.098
61.18 3.96 -47.774799
61.845001 3.96 -48.372398
62.509998 3.96 -48.374199
63.174999 3.96 -48.574001
63.84 3.96 -49.013199
64.504997 3.96 -49.317402
65.169998 3.96 -49.582001
65.834999 3.96 -50.087799
66.5 3.96 -50.341599
67.165001 3.96 -50.696201
67.830002 3.96 -51.3694
68.495003 3.96 -51.734798
69.160004 3.96 -52.382801
69.824997 3.96 -52.377399
70.489998 3.96 -53.028999
71.154999 3.96 -53.050598
71.82 3.96 -53.187401
72.485001 3.96 -53.565399
73.150002 3.96 -53.856998
73.815002 3.96 -54.191799
74.480003 3.96 -54.607601
75.144997 3.96 -55.144001
75.809998 3.96 -55.999001
76.474998 3.96 -inf
77.139999 3.96 -inf
77.805 3.96 -inf
78.470001 3.96 -inf
79.135002 3.96 -inf
-59.185001 4.6799998 -inf
-58.52 4.6799998 -inf
-57.855 4.6799998 -inf
-57.189999 4.6799998 -inf
-56.525002 4.6799998 -inf
-55.860001 4.6799998 -inf
-55.195 4.6799998 -inf
-54.529999 4.6799998 -inf
-53.865002 4.6799998 -inf
-53.200001 4.6799998 -inf
-52.535 4.6799998 -inf
-51.869999 4.6799998 -inf
-51.205002 4.6799998 -inf
-50.540001 4.6799998 -inf
-49.875 4.6799998 -inf
-49.209999 4.6799998 -62.848
-48.544998 4.6799998 -62.381802
-47.880001 4.6799998 -62.263
-47.215 4.6799998 -62.570801
-46.549999 4.6799998 -62.433998
-45.884998 4.6799998 -61.966
-45.220001 4.6799998 -62.1604
-44.555 4.6799998 -62.632
-43.889999 4.6799998 -61.901199
-43.224998 4.6799998 -61.946201
-42.560001 4.6799998 -61.937199
-41.895 4.6799998 -61.641998
-41.23 4.6799998 -61.6726
-40.564999 4.6799998 -61.138
-39.900002 4.6799998 -60.450401
-39.235001 4.6799998 -60.619598
-38.57 4.6799998 -59.966202
-37.904999 4.6799998 -59.507198
-37.240002 4.6799998 -59.276798
-36.575001 4.6799998 -59.188599
-35.91 4.6799998 -58.985199
-35.244999 4.6799998 -58.9888
-34.580002 4.6799998 -58.902401
-33.915001 4.6799998 -58.366001
-33.25 4.6799998 -58.922199
-32.584999 4.6799998 -58.569401
-31.92 4.6799998 -58.5802
-31.254999 4.6799998 -58.465
-30.59 4.6799998 -58.4254
-29.924999 4.6799998 -58.320999
-29.26 4.6799998 -57.5434
-28.594999 4.6799998 -56.188
-27.93 4.6799998 -55.390598
-27.264999 4.6799998 -53.219799
-26.6 4.6799998 -53.252201
-25.934999 4.6799998 -52.562801
-25.27 4.6799998 -51.914799
-24.605 4.6799998 -51.374802
-23.940001 4.6799998 -51.252399
-23.275 4.6799998 -50.851002
-22.610001 4.6799998 -50.8708
-21.945 4.6799998 -49.868198
-21.280001 4.6799998 -49.3894
-20.615 4.6799998 -49.2472
-19.950001 4.6799998 -48.667599
-19.285 4.6799998 -48.536201
-18.620001 4.6799998 -48.370602
-17.955 4.6799998 -48.0574
-17.290001 4.6799998 -47.900799
-16.625 4.6799998 -48.005199
-15.96 4.6799998 -47.600201
-15.295 4.6799998 -47.4076
-14.63 4.6799998 -47.133999
-13.965 4.6799998 -46.7794
-13.3 4.6799998 -46.853199
-12.635 4.6799998 -46.840599
-11.97 4.6799998 -46.4338
-11.305 4.6799998 -45.918999
-10.64 4.6799998 -46.027
-9.9750004 4.6799998 -45.760601
-9.3100004 4.6799998 -45.645401
-8.6450005 4.6799998 -45.933399
-7.98 4.6799998 -45.294399
-7.3150001 4.6799998 -45.341202
-6.6500001 4.6799998 -45.166599
-5.9850001 4.6799998 -45.402401
-5.3200002 4.6799998 -44.965
-4.6550002 4.6799998 -45.006401
-3.99 4.6799998 -44.738201
-3.325 4.6799998 -44.277401
-2.6600001 4.6799998 -44.362
-1.995 4.6799998 -44.153198
-1.33 4.6799998 -44.0056
-0.66500002 4.6799998 -43.960602
0 4.6799998 -43.354
0.66500002 4.6799998 -43.318001
1.33 4.6799998 -43.1506
1.995 4.6799998 -43.125401
2.6600001 4.6799998 -42.914799
3.325 4.6799998 -42.985001
3.99 4.6799998 -42.898602
4.6550002 4.6799998 -42.682598
5.3200002 4.6799998 -42.425201
5.9850001 4.6799998 -42.259602
6.6500001 4.6799998 -42.1786
7.3150001 4.6799998 -41.928398
7.98 4.6799998 -41.8312
8.6450005 4.6799998 -41.861801
9.3100004 4.6799998 -42.014801
9.9750004 4.6799998 -42.106602
10.64 4.6799998 -41.420799
11.305 4.6799998 -41.698002
11.97 4.6799998 -41.107601
12.635 4.6799998 -41.275002
13.3 4.6799998 -41.267799
13.965 4.6799998 -40.632401
14.63 4.6799998 -40.356998
15.295 4.6799998 -40.1446
15.96 4.6799998 -40.096001
16.625 4.6799998 -40.187801
17.290001 4.6799998 -39.896198
17.955 4.6799998 -40.088799
18.620001 4.6799998 -39.833199
19.285 4.6799998 -39.744999
19.950001 4.6799998 -39.552399
20.615 4.6799998 -39.316601
21.280001 4.6799998 -39.0826
21.945 4.6799998 -39.282398
22.610001 4.6799998 -38.854
23.275 4.6799998 -38.9548
23.940001 4.6799998 -38.108799
24.605 4.6799998 -38.065601
25.27 4.6799998 -38.1646
25.934999 4.6799998 -38.449001
26.6 4.6799998 -37.660599
27.264999 4.6799998 -37.583199
27.93 4.6799998 -37.368999
28.594999 4.6799998 -37.493198
29.26 4.6799998 -37.010799
29.924999 4.6799998 -36.91
30.59 4.6799998 -36.895599
31.254999 4.6799998 -36.755199
31.92 4.6799998 -36.893799
32.584999 4.6799998 -36.429401
33.25 4.6799998 -36.056801
33.915001 4.6799998 -36.089199
34.580002 4.6799998 -35.695
35.244999 4.6799998 -35.7472
35.91 4.6799998 -35.7202
36.575001 4.6799998 -35.660801
37.240002 4.6799998 -35.302601
37.904999 4.6799998 -34.75
38.57 4.6799998 -35.000198
39.235001 4.6799998 -35.1064
39.900002 4.6799998 -35.354801
40.564999 4.6799998 -35.243198
41.23 4.6799998 -35.552799
41.895 4.6799998 -35.756199
42.560001 4.6799998 -35.533001
43.224998 4.6799998 -35.527599
43.889999 4.6799998 -35.703999
44.555 4.6799998 -35.536598
45.220001 4.6799998 -35.588799
45.884998 4.6799998 -35.7472
46.549999 4.6799998 -36.650799
47.215 4.6799998 -37.032398
47.880001 4.6799998 -37.414001
48.544998 4.6799998 -37.802799
49.209999 4.6799998 -37.655201
49.875 4.6799998 -37.865799
50.540001 4.6799998 -37.863998
51.205002 4.6799998 -37.799198
51.869999 4.6799998 -37.639
52.535 4.6799998 -38.092602
53.200001 4.6799998 -38.0116
53.865002 4.6799998 -38.155602
54.529999 4.6799998 -38.692001
55.195 4.6799998 -39.190601
55.860001 4.6799998 -41.122002
56.525002 4.6799998 -42.3694
57.189999 4.6799998 -43.308998
57.855 4.6799998 -45.2584
58.52 4.6799998 -45.865002
59.185001 4.6799998 -46.219601
59.849998 4.6799998 -46.878399
60.514999 4.6799998 -47.566002
61.18 4.6799998 -47.834202
61.845001 4.6799998 -48.782799
62.509998 4.6799998 -48.716202
63.174999 4.6799998 -48.6838
63.84 4.6799998 -48.921398
64.504997 4.6799998 -49.504601
65.169998 4.6799998 -49.767399
65.834999 4.6799998 -49.916801
66.5 4.6799998 -50.393799
67.165001 4.6799998 -50.724998
67.830002 4.6799998 -51.194801
68.495003 4.6799998 -51.551201
69.160004 4.6799998 -51.9958
69.824997 4.6799998 -52.359402
70.489998 4.6799998 -52.629398
71.154999 4.6799998 -52.8922
71.82 4.6799998 -53.1982
72.485001 4.6799998 -53.385399
73.150002 4.6799998 -53.662601
73.815002 4.6799998 -53.999199
74.480003 4.6799998 -54.494202
75.144997 4.6799998 -54.973
75.809998 4.6799998 -55.784801
76.474998 4.6799998 -inf
77.139999 4.6799998 -inf
77.805 4.6799998 -inf
78.470001 4.6799998 -inf
79.135002 4.6799998 -inf
-59.185001 5.4000001 -inf
-58.52 5.4000001 -inf
-57.855 5.4000001 -inf
-57.189999 5.4000001 -inf
-56.525002 5.4000001 -inf
-55.860001 5.4000001 -inf
-55.195 5.4000001 -inf
-54.529999 5.4000001 -inf
-53.865002 5.4000001 -inf
-53.200001 5.4000001 -inf
-52.535 5.4000001 -inf
-51.869999 5.4000001 -inf
-51.205002 5.4000001 -inf
-50.540001 5.4000001 -inf
-49.875 5.4000001 -inf
-49.209999 5.4000001 -63.532001
-48.544998 5.4000001 -63.2314
-47.880001 5.4000001 -62.831799
-47.215 5.4000001 -62.561798
-46.549999 5.4000001 -62.623001
-45.884998 5.4000001 -62.370998
-45.220001 5.4000001 -62.137001
-44.555 5.4000001 -62.430401
-43.889999 5.4000001 -62.232399
-43.224998 5.4000001 -61.9282
-42.560001 5.4000001 -62.036201
-41.895 5.4000001 -61.408001
-41.23 5.4000001 -61.602402
-40.564999 5.4000001 -61.641998
-39.900002 5.4000001 -60.806801
-39.235001 5.4000001 -60.776199
-38.57 5.4000001 -59.969799
-37.904999 5.4000001 -59.510799
-37.240002 5.4000001 -59.4478
-36.575001 5.4000001 -59.544998
-35.91 5.4000001 -59.476601
-35.244999 5.4000001 -58.956402
-34.580002 5.4000001 -58.729599
-33.915001 5.4000001 -59.501801
-33.25 5.4000001 -59.311001
-32.584999 5.4000001 -59.024799
-31.92 5.4000001 -58.481201
-31.254999 5.4000001 -58.4002
-30.59 5.4000001 -58.500999
-29.924999 5.4000001 -58.636002
-29.26 5.4000001 -58.074402
-28.594999 5.4000001 -56.771198
-27.93 5.4000001 -55.802799
-27.264999 5.4000001 -54.685001
-26.6 5.4000001 -52.748199
-25.934999 5.4000001 -52.5826
-25.27 5.4000001 -51.9454
-24.605 5.4000001 -51.696999
-23.940001 5.4000001 -51.068802
-23.275 5.4000001 -51.0994
-22.610001 5.4000001 -50.953602
-21.945 5.4000001 -50.062599
-21.280001 5.4000001 -49.366001
-20.615 5.4000001 -49.250801
-19.950001 5.4000001 -48.6856
-19.285 5.4000001 -48.4048
-18.620001 5.4000001 -48.255402
-17.955 5.4000001 -48.298599
-17.290001 5.4000001 -48.0322
-16.625 5.4000001 -47.744202
-15.96 5.4000001 -47.431
-15.295 5.4000001 -47.179001
-14.63 5.4000001 -47.2402
-13.965 5.4000001 -46.952202
-13.3 5.4000001 -46.961201
-12.635 5.4000001 -46.8694
-11.97 5.4000001 -46.595798
-11.305 5.4000001 -46.093601
-10.64 5.4000001 -45.908199
-9.9750004 5.4000001 -45.82
-9.3100004 5.4000001 -45.532001
-8.6450005 5.4000001 -45.798401
-7.98 5.4000001 -45.535599
-7.3150001 5.4000001 -45.384399
-6.6500001 5.4000001 -45.560799
-5.9850001 5.4000001 -44.808399
-5.3200002 5.4000001 -45.148602
-4.6550002 5.4000001 -45.211601
-3.99 5.4000001 -44.664398
-3.325 5.4000001 -44.617599
-2.6600001 5.4000001 -44.250401
-1.995 5.4000001 -44.000198
-1.33 5.4000001 -43.974998
-0.66500002 5.4000001 -43.562801
0 5.4000001 -43.3414
0.66500002 5.4000001 -43.087601
1.33 5.4000001 -43.335999
1.995 5.4000001 -42.999401
2.6600001 5.4000001 -42.999401
3.325 5.4000001 -42.796001
3.99 5.4000001 -42.6754
4.6550002 5.4000001 -42.472
5.3200002 5.4000001 -42.3064
5.9850001 5.4000001 -42.272202
6.6500001 5.4000001 -42.034599
7.3150001 5.4000001 -41.9608
7.98 5.4000001 -42.110199
8.6450005 5.4000001 -41.778999
9.3100004 5.4000001 -41.726799
9.9750004 5.4000001 -41.8312
10.64 5.4000001 -41.6674
11.305 5.4000001 -41.6026
11.97 5.4000001 -42.000401
12.635 5.4000001 -41.581001
13.3 5.4000001 -41.301998
13.965 5.4000001 -40.929401
14.63 5.4000001 -40.213001
15.295 5.4000001 -39.933998
15.96 5.4000001 -40.150002
16.625 5.4000001 -40.276001
17.290001 5.4000001 -40.535198
17.955 5.4000001 -39.943001
18.620001 5.4000001 -39.8908
19.285 5.4000001 -39.5434
19.950001 5.4000001 -39.737801
20.615 5.4000001 -39.178001
21.280001 5.4000001 -39.311199
21.945 5.4000001 -38.862999
22.610001 5.4000001 -38.756802
23.275 5.4000001 -38.830601
23.940001 5.4000001 -38.171799
24.605 5.4000001 -37.988201
25.27 5.4000001 -38.020599
25.934999 5.4000001 -38.015202
