# .PCD v0.7 - Point Cloud Data file format
VERSION 0.7
FIELDS x y z
SIZE 4 4 4
TYPE F F F
COUNT 1 1 1
WIDTH 1794
HEIGHT 1
VIEWPOINT 0 0 0 1 0 0 0
POINTS 1794
DATA ascii
88.710999 17.639999 -54.828999
89.375999 17.639999 -55.739799
90.041 17.639999 -56.506599
90.706001 17.639999 -57.163601
91.371002 17.639999 -inf
92.036003 17.639999 -inf
92.700996 17.639999 -inf
-42.293999 18.360001 -inf
-41.629002 18.360001 -inf
-40.964001 18.360001 -inf
-40.299 18.360001 -inf
-39.633999 18.360001 -inf
-38.969002 18.360001 -inf
-38.304001 18.360001 -inf
-37.639 18.360001 -inf
-36.973999 18.360001 -inf
-36.308998 18.360001 -inf
-35.644001 18.360001 -inf
-34.979 18.360001 -inf
-34.313999 18.360001 -inf
-33.648998 18.360001 -inf
-32.984001 18.360001 -inf
-32.319 18.360001 -inf
-31.653999 18.360001 -71.551003
-30.989 18.360001 -70.924599
-30.323999 18.360001 -70.1884
-29.659 18.360001 -70.1362
-28.993999 18.360001 -69.540398
-28.329 18.360001 -68.867203
-27.664 18.360001 -68.080597
-26.999001 18.360001 -67.826797
-26.334 18.360001 -67.556801
-25.669001 18.360001 -66.933998
-25.004 18.360001 -66.089798
-24.339001 18.360001 -65.398598
-23.674 18.360001 -64.846001
-23.009001 18.360001 -64.3582
-22.344 18.360001 -63.6418
-21.679001 18.360001 -63.2206
-21.014 18.360001 -63.0676
-20.349001 18.360001 -62.522202
-19.684 18.360001 -62.282799
-19.018999 18.360001 -62.212601
-18.354 18.360001 -61.319801
-17.688999 18.360001 -61.2784
-17.024 18.360001 -59.919399
-16.358999 18.360001 -59.701599
-15.694 18.360001 -58.970798
-15.029 18.360001 -58.504601
-14.364 18.360001 -56.787399
-13.699 18.360001 -56.3032
-13.034 18.360001 -55.590401
-12.369 18.360001 -54.699402
-11.704 18.360001 -53.930801
-11.039 18.360001 -53.3116
-10.374 18.360001 -52.402599
-9.7089996 18.360001 -51.9076
-9.0439997 18.360001 -51.5116
-8.3789997 18.360001 -50.7304
-7.7140002 18.360001 -50.617001
-7.0489998 18.360001 -49.645
-6.3839998 18.360001 -48.268002
-5.7189999 18.360001 -47.360802
-5.0539999 18.360001 -46.392399
-4.3889999 18.360001 -45.560799
-3.724 18.360001 -44.653599
-3.059 18.360001 -44.372799
-2.3940001 18.360001 -43.888599
-1.729 18.360001 -43.267601
-1.064 18.360001 -43.0732
-0.39899999 18.360001 -42.709599
0.266 18.360001 -42.054401
0.93099999 18.360001 -41.212002
1.596 18.360001 -40.504601
2.2609999 18.360001 -39.491199
2.9260001 18.360001 -38.936798
3.5910001 18.360001 -38.128601
4.256 18.360001 -37.6264
4.921 18.360001 -37.316799
5.586 18.360001 -36.998199
6.2509999 18.360001 -36.454601
6.9159999 18.360001 -35.858799
7.5809999 18.360001 -35.5816
8.2460003 18.360001 -34.818401
8.9110003 18.360001 -34.638401
9.5760002 18.360001 -34.0228
10.241 18.360001 -33.911201
10.906 18.360001 -33.5224
11.571 18.360001 -33.194801
12.236 18.360001 -39.561401
12.901 18.360001 -33.139
13.566 18.360001 -32.571999
14.231 18.360001 -32.467602
14.896 18.360001 -31.996
15.561 18.360001 -31.896999
16.226 18.360001 -31.7728
16.891001 18.360001 -31.7584
17.556 18.360001 -31.6432
18.221001 18.360001 -31.596399
18.886 18.360001 -31.474001
19.551001 18.360001 -31.3606
20.216 18.360001 -31.285
20.881001 18.360001 -31.155399
21.546 18.360001 -32.813202
22.211 18.360001 -30.878201
22.875999 18.360001 -30.826
23.541 18.360001 -30.692801
24.205999 18.360001 -30.5956
24.871 18.360001 -30.4228
25.535999 18.360001 -30.329201
26.201 18.360001 -30.3634
26.865999 18.360001 -30.2896
27.531 18.360001 -30.541599
28.195999 18.360001 -30.8566
28.861 18.360001 -31.110399
29.525999 18.360001 -31.0924
30.191 18.360001 -34.593399
30.856001 18.360001 -31.8232
31.521 18.360001 -31.8736
32.186001 18.360001 -31.8682
32.851002 18.360001 -31.8358
33.515999 18.360001 -32.032001
34.181 18.360001 -32.212002
34.846001 18.360001 -32.305599
35.511002 18.360001 -32.197601
36.175999 18.360001 -32.7826
36.841 18.360001 -32.906799
37.506001 18.360001 -33.147999
38.171001 18.360001 -33.1642
38.835999 18.360001 -33.245201
39.500999 18.360001 -33.909401
40.166 18.360001 -34.487202
40.831001 18.360001 -36.175598
41.495998 18.360001 -36.605801
42.160999 18.360001 -37.111599
42.826 18.360001 -37.156601
43.491001 18.360001 -37.259201
44.155998 18.360001 -37.8442
44.820999 18.360001 -38.564201
45.486 18.360001 -38.877399
46.151001 18.360001 -39.188801
46.816002 18.360001 -39.258999
47.480999 18.360001 -39.3778
48.146 18.360001 -39.556
48.811001 18.360001 -39.305801
49.476002 18.360001 -39.062801
50.140999 18.360001 -40.2976
50.806 18.360001 -39.9538
51.471001 18.360001 -40.096001
52.136002 18.360001 -40.090599
52.800999 18.360001 -40.295799
53.466 18.360001 -40.1824
54.131001 18.360001 -40.222
54.796001 18.360001 -40.301201
55.460999 18.360001 -40.313801
56.125999 18.360001 -40.446999
56.791 18.360001 -40.4902
57.456001 18.360001 -40.842999
58.120998 18.360001 -41.087799
58.785999 18.360001 -40.681
59.451 18.360001 -41.012199
60.116001 18.360001 -41.134602
60.780998 18.360001 -41.019402
61.445999 18.360001 -41.098598
62.111 18.360001 -41.381199
62.776001 18.360001 -41.2696
63.441002 18.360001 -41.503601
64.106003 18.360001 -41.7952
64.771004 18.360001 -41.6152
65.435997 18.360001 -41.698002
66.100998 18.360001 -41.899601
66.765999 18.360001 -42.079601
67.431 18.360001 -42.308201
68.096001 18.360001 -42.166
68.761002 18.360001 -42.632198
69.426003 18.360001 -42.601601
70.091003 18.360001 -42.589001
70.755997 18.360001 -42.8032
71.420998 18.360001 -42.977798
72.085999 18.360001 -43.48
72.750999 18.360001 -43.474602
73.416 18.360001 -43.668999
74.081001 18.360001 -43.389999
74.746002 18.360001 -43.57
75.411003 18.360001 -43.679798
76.075996 18.360001 -43.694199
76.740997 18.360001 -44.027199
77.405998 18.360001 -43.845402
78.070999 18.360001 -43.9552
78.736 18.360001 -44.3386
79.401001 18.360001 -44.842602
80.066002 18.360001 -45.3214
80.731003 18.360001 -45.8596
81.396004 18.360001 -46.145802
82.060997 18.360001 -46.6408
82.725998 18.360001 -47.441799
83.390999 18.360001 -48.129398
84.056 18.360001 -48.968201
84.721001 18.360001 -49.700802
85.386002 18.360001 -50.597198
86.051003 18.360001 -51.545799
86.716003 18.360001 -52.209999
87.380997 18.360001 -52.908401
88.045998 18.360001 -53.660801
88.710999 18.360001 -54.3214
89.375999 18.360001 -55.291599
90.041 18.360001 -55.943199
90.706001 18.360001 -56.529999
91.371002 18.360001 -57.3508
92.036003 18.360001 -inf
92.700996 18.360001 -inf
-42.293999 19.08 -inf
-41.629002 19.08 -inf
-40.964001 19.08 -inf
-40.299 19.08 -inf
-39.633999 19.08 -inf
-38.969002 19.08 -inf
-38.304001 19.08 -inf
-37.639 19.08 -inf
-36.973999 19.08 -inf
-36.308998 19.08 -inf
-35.644001 19.08 -inf
-34.979 19.08 -inf
-34.313999 19.08 -inf
-33.648998 19.08 -inf
-32.984001 19.08 -inf
-32.319 19.08 -inf
-31.653999 19.08 -inf
-30.989 19.08 -72.1306
-30.323999 19.08 -71.505997
-29.659 19.08 -70.838203
-28.993999 19.08 -70.105598
-28.329 19.08 -69.657402
-27.664 19.08 -69.139
-26.999001 19.08 -68.329002
-26.334 19.08 -67.735001
-25.669001 19.08 -67.412804
-25.004 19.08 -66.987999
-24.339001 19.08 -65.922401
-23.674 19.08 -65.139397
-23.009001 19.08 -64.478798
-22.344 19.08 -63.418598
-21.679001 19.08 -63.298
-21.014 19.08 -63.2962
-20.349001 19.08 -63.0172
-19.684 19.08 -62.905602
-19.018999 19.08 -62.587002
-18.354 19.08 -61.987598
-17.688999 19.08 -61.539398
-17.024 19.08 -60.7006
-16.358999 19.08 -60.139
-15.694 19.08 -59.3326
-15.029 19.08 -58.4506
-14.364 19.08 -57.260799
-13.699 19.08 -56.875599
-13.034 19.08 -56.958401
-12.369 19.08 -55.5238
-11.704 19.08 -54.5662
-11.039 19.08 -53.497002
-10.374 19.08 -52.462002
-9.7089996 19.08 -52.174
-9.0439997 19.08 -51.590801
-8.3789997 19.08 -50.9212
-7.7140002 19.08 -51.247002
-7.0489998 19.08 -54.5644
-6.3839998 19.08 -51.383801
-5.7189999 19.08 -50.194
-5.0539999 19.08 -48.406601
-4.3889999 19.08 -47.772999
-3.724 19.08 -46.7038
-3.059 19.08 -45.791199
-2.3940001 19.08 -45.683201
-1.729 19.08 -44.653599
-1.064 19.08 -44.0452
-0.39899999 19.08 -43.245998
0.266 19.08 -42.5224
0.93099999 19.08 -41.59
1.596 19.08 -40.799801
2.2609999 19.08 -40.124802
2.9260001 19.08 -39.370602
3.5910001 19.08 -38.600201
4.256 19.08 -38.045799
4.921 19.08 -37.493198
5.586 19.08 -37.046799
6.2509999 19.08 -36.562599
6.9159999 19.08 -36.013599
7.5809999 19.08 -35.394402
8.2460003 19.08 -34.8382
8.9110003 19.08 -34.588001
9.5760002 19.08 -33.952599
10.241 19.08 -33.986801
10.906 19.08 -33.707802
11.571 19.08 -33.374802
12.236 19.08 -33.365799
12.901 19.08 -33.367599
13.566 19.08 -32.809601
14.231 19.08 -32.505402
14.896 19.08 -32.278599
15.561 19.08 -32.048199
16.226 19.08 -31.915001
16.891001 19.08 -31.7026
17.556 19.08 -31.596399
18.221001 19.08 -31.42
18.886 19.08 -31.4272
19.551001 19.08 -31.391199
20.216 19.08 -31.339001
20.881001 19.08 -31.348
21.546 19.08 -36.279999
22.211 19.08 -37.7164
22.875999 19.08 -30.7684
23.541 19.08 -30.7666
24.205999 19.08 -30.687401
24.871 19.08 -30.3724
25.535999 19.08 -30.471399
26.201 19.08 -30.3076
26.865999 19.08 -30.552401
27.531 19.08 -30.7918
28.195999 19.08 -31.115801
28.861 19.08 -31.518999
29.525999 19.08 -31.5154
30.191 19.08 -31.724199
30.856001 19.08 -31.909599
31.521 19.08 -31.862801
32.186001 19.08 -31.760201
32.851002 19.08 -31.997801
33.515999 19.08 -31.972601
34.181 19.08 -32.275002
34.846001 19.08 -32.611599
35.511002 19.08 -32.606201
36.175999 19.08 -32.726799
36.841 19.08 -33.072399
37.506001 19.08 -33.250599
38.171001 19.08 -33.308201
38.835999 19.08 -33.1912
39.500999 19.08 -33.7528
40.166 19.08 -34.687
40.831001 19.08 -36.573399
41.495998 19.08 -37.043201
42.160999 19.08 -36.965801
42.826 19.08 -37.4986
43.491001 19.08 -37.516602
44.155998 19.08 -37.786598
44.820999 19.08 -38.196999
45.486 19.08 -38.908001
46.151001 19.08 -39.566799
46.816002 19.08 -39.700001
47.480999 19.08 -39.950199
48.146 19.08 -39.937599
48.811001 19.08 -39.669399
49.476002 19.08 -40.625198
50.140999 19.08 -40.942001
50.806 19.08 -40.5028
51.471001 19.08 -40.230999
52.136002 19.08 -40.393002
52.800999 19.08 -40.571201
53.466 19.08 -40.419998
54.131001 19.08 -40.243599
54.796001 19.08 -40.443401
55.460999 19.08 -40.486599
56.125999 19.08 -40.022202
56.791 19.08 -40.497398
57.456001 19.08 -40.884399
58.120998 19.08 -40.677399
58.785999 19.08 -40.862801
59.451 19.08 -40.842999
60.116001 19.08 -41.022999
60.780998 19.08 -40.922199
61.445999 19.08 -41.226398
62.111 19.08 -41.1814
62.776001 19.08 -41.4352
63.441002 19.08 -41.257
64.106003 19.08 -41.5756
64.771004 19.08 -41.876202
65.435997 19.08 -41.944599
66.100998 19.08 -42.180401
66.765999 19.08 -41.906799
67.431 19.08 -42.382
68.096001 19.08 -42.453999
68.761002 19.08 -42.5872
69.426003 19.08 -42.671799
70.091003 19.08 -42.9436
70.755997 19.08 -42.952599
71.420998 19.08 -43.197399
72.085999 19.08 -43.487202
72.750999 19.08 -43.651001
73.416 19.08 -43.620399
74.081001 19.08 -43.256802
74.746002 19.08 -43.600601
75.411003 19.08 -43.498001
76.075996 19.08 -43.717602
76.740997 19.08 -43.796799
77.405998 19.08 -44.052399
78.070999 19.08 -44.192799
78.736 19.08 -44.365601
79.401001 19.08 -44.803001
80.066002 19.08 -45.262001
80.731003 19.08 -45.749802
81.396004 19.08 -46.1008
82.060997 19.08 -46.748798
82.725998 19.08 -47.531799
83.390999 19.08 -48.230202
84.056 19.08 -48.694599
84.721001 19.08 -49.511799
85.386002 19.08 -50.311001
86.051003 19.08 -51.257801
86.716003 19.08 -52.040798
87.380997 19.08 -52.665401
88.045998 19.08 -53.318802
88.710999 19.08 -54.0928
89.375999 19.08 -54.847
90.041 19.08 -55.329399
90.706001 19.08 -56.065601
91.371002 19.08 -56.843201
92.036003 19.08 -inf
92.700996 19.08 -inf
-42.293999 19.799999 -inf
-41.629002 19.799999 -inf
-40.964001 19.799999 -inf
-40.299 19.799999 -inf
-39.633999 19.799999 -inf
-38.969002 19.799999 -inf
-38.304001 19.799999 -inf
-37.639 19.799999 -inf
-36.973999 19.799999 -inf
-36.308998 19.799999 -inf
-35.644001 19.799999 -inf
-34.979 19.799999 -inf
-34.313999 19.799999 -inf
-33.648998 19.799999 -inf
-32.984001 19.799999 -inf
-32.319 19.799999 -inf
-31.653999 19.799999 -inf
-30.989 19.799999 -72.425797
-30.323999 19.799999 -72.071198
-29.659 19.799999 -71.253998
-28.993999 19.799999 -70.631203
-28.329 19.799999 -70.114601
-27.664 19.799999 -69.558403
-26.999001 19.799999 -68.813202
-26.334 19.799999 -68.176003
-25.669001 19.799999 -67.805199
-25.004 19.799999 -67.540604
-24.339001 19.799999 -66.790001
-23.674 19.799999 -65.288803
-23.009001 19.799999 -64.583199
-22.344 19.799999 -63.791199
-21.679001 19.799999 -62.965
-21.014 19.799999 -62.813801
-20.349001 19.799999 -62.693199
-19.684 19.799999 -62.4412
-19.018999 19.799999 -62.635601
-18.354 19.799999 -62.416
-17.688999 19.799999 -61.913799
-17.024 19.799999 -60.866199
-16.358999 19.799999 -60.4972
-15.694 19.799999 -59.860001
-15.029 19.799999 -59.148998
-14.364 19.799999 -58.895199
-13.699 19.799999 -58.423599
-13.034 19.799999 -57.282398
-12.369 19.799999 -56.143002
-11.704 19.799999 -54.937
-11.039 19.799999 -54.267399
-10.374 19.799999 -53.603199
-9.7089996 19.799999 -53.3116
-9.0439997 19.799999 -53.659
-8.3789997 19.799999 -54.9604
-7.7140002 19.799999 -54.933399
-7.0489998 19.799999 -54.5644
-6.3839998 19.799999 -53.3242
-5.7189999 19.799999 -52.66
-5.0539999 19.799999 -52.024601
-4.3889999 19.799999 -51.1786
-3.724 19.799999 -49.8088
-3.059 19.799999 -48.278801
-2.3940001 19.799999 -46.241199
-1.729 19.799999 -45.503201
-1.064 19.799999 -44.389
-0.39899999 19.799999 -43.867001
0.266 19.799999 -43.155998
0.93099999 19.799999 -42.221802
1.596 19.799999 -41.221001
2.2609999 19.799999 -40.245399
2.9260001 19.799999 -39.509201
3.5910001 19.799999 -38.9818
4.256 19.799999 -38.3284
4.921 19.799999 -37.6264
5.586 19.799999 -37.1782
6.2509999 19.799999 -36.395199
6.9159999 19.799999 -35.903801
7.5809999 19.799999 -35.299
8.2460003 19.799999 -35.331402
8.9110003 19.799999 -34.652802
9.5760002 19.799999 -34.5592
10.241 19.799999 -34.249599
10.906 19.799999 -34.044399
11.571 19.799999 -33.5116
12.236 19.799999 -33.270401
12.901 19.799999 -33.205601
13.566 19.799999 -33.032799
14.231 19.799999 -32.579201
14.896 19.799999 -32.426201
15.561 19.799999 -32.177799
16.226 19.799999 -32.030201
16.891001 19.799999 -31.832199
17.556 19.799999 -31.888
18.221001 19.799999 -31.672001
18.886 19.799999 -31.664801
19.551001 19.799999 -31.646799
20.216 19.799999 -31.558599
20.881001 19.799999 -31.6036
21.546 19.799999 -31.2976
22.211 19.799999 -31.0096
22.875999 19.799999 -30.944799
23.541 19.799999 -31.051001
24.205999 19.799999 -30.860201
24.871 19.799999 -31.0618
25.535999 19.799999 -30.799
26.201 19.799999 -30.725201
26.865999 19.799999 -33.554798
27.531 19.799999 -31.085199
28.195999 19.799999 -31.726
28.861 19.799999 -31.722401
29.525999 19.799999 -31.9564
30.191 19.799999 -32.085999
30.856001 19.799999 -32.0644
31.521 19.799999 -31.934799
32.186001 19.799999 -31.915001
32.851002 19.799999 -32.118401
33.515999 19.799999 -31.9636
34.181 19.799999 -32.253399
34.846001 19.799999 -32.275002
35.511002 19.799999 -32.620602
36.175999 19.799999 -32.753799
36.841 19.799999 -32.991402
37.506001 19.799999 -33.275799
38.171001 19.799999 -33.567402
38.835999 19.799999 -33.6376
39.500999 19.799999 -33.873402
40.166 19.799999 -34.7752
40.831001 19.799999 -36.342999
41.495998 19.799999 -36.983799
42.160999 19.799999 -37.502201
42.826 19.799999 -37.309601
43.491001 19.799999 -37.7146
44.155998 19.799999 -37.730801
44.820999 19.799999 -38.018799
45.486 19.799999 -38.639801
46.151001 19.799999 -39.3382
46.816002 19.799999 -39.8908
47.480999 19.799999 -40.191399
48.146 19.799999 -40.011398
48.811001 19.799999 -40.5406
49.476002 19.799999 -40.4128
50.140999 19.799999 -40.562199
50.806 19.799999 -40.556801
51.471001 19.799999 -40.7062
52.136002 19.799999 -40.551399
52.800999 19.799999 -40.661201
53.466 19.799999 -40.402
54.131001 19.799999 -40.798
54.796001 19.799999 -40.589199
55.460999 19.799999 -40.787201
56.125999 19.799999 -40.626999
56.791 19.799999 -40.7062
57.456001 19.799999 -41.23
58.120998 19.799999 -41.005001
58.785999 19.799999 -41.246201
59.451 19.799999 -40.893398
60.116001 19.799999 -41.148998
60.780998 19.799999 -41.265999
61.445999 19.799999 -41.438801
62.111 19.799999 -41.661999
62.776001 19.799999 -41.6674
63.441002 19.799999 -41.608002
64.106003 19.799999 -41.879799
64.771004 19.799999 -41.841999
65.435997 19.799999 -42.4324
66.100998 19.799999 -42.2938
66.765999 19.799999 -42.596199
67.431 19.799999 -42.516998
68.096001 19.799999 -42.909401
68.761002 19.799999 -43.062401
69.426003 19.799999 -42.979599
70.091003 19.799999 -43.3036
70.755997 19.799999 -43.143398
71.420998 19.799999 -43.283798
72.085999 19.799999 -44.034401
72.750999 19.799999 -43.640202
73.416 19.799999 -44.4142
74.081001 19.799999 -43.7356
74.746002 19.799999 -43.746399
75.411003 19.799999 -43.373798
76.075996 19.799999 -43.809399
76.740997 19.799999 -44.074001
77.405998 19.799999 -43.884998
78.070999 19.799999 -44.149601
78.736 19.799999 -44.4034
79.401001 19.799999 -44.8624
80.066002 19.799999 -45.1828
80.731003 19.799999 -45.891998
81.396004 19.799999 -46.3582
82.060997 19.799999 -47.0746
82.725998 19.799999 -47.569599
83.390999 19.799999 -48.0952
84.056 19.799999 -48.547001
84.721001 19.799999 -49.225601
85.386002 19.799999 -50.152599
86.051003 19.799999 -50.942799
86.716003 19.799999 -51.823002
87.380997 19.799999 -52.435001
88.045998 19.799999 -53.0056
88.710999 19.799999 -53.8228
89.375999 19.799999 -54.4366
90.041 19.799999 -54.951401
90.706001 19.799999 -55.3582
91.371002 19.799999 -56.9296
92.036003 19.799999 -inf
92.700996 19.799999 -inf
-42.293999 20.52 -inf
-41.629002 20.52 -inf
-40.964001 20.52 -inf
-40.299 20.52 -inf
-39.633999 20.52 -inf
-38.969002 20.52 -inf
-38.304001 20.52 -inf
-37.639 20.52 -inf
-36.973999 20.52 -inf
-36.308998 20.52 -inf
-35.644001 20.52 -inf
-34.979 20.52 -inf
-34.313999 20.52 -inf
-33.648998 20.52 -inf
-32.984001 20.52 -inf
-32.319 20.52 -inf
-31.653999 20.52 -inf
-30.989 20.52 -inf
-30.323999 20.52 -72.627403
-29.659 20.52 -71.919998
-28.993999 20.52 -70.947998
-28.329 20.52 -70.424202
-27.664 20.52 -69.790604
-26.999001 20.52 -69.218201
-26.334 20.52 -68.514397
-25.669001 20.52 -68.127403
-25.004 20.52 -67.562202
-24.339001 20.52 -66.952003
-23.674 20.52 -66.102402
-23.009001 20.52 -65.2258
-22.344 20.52 -64.300598
-21.679001 20.52 -63.294399
-21.014 20.52 -63.204399
-20.349001 20.52 -63.2062
-19.684 20.52 -63.172001
-19.018999 20.52 -62.7472
-18.354 20.52 -62.3764
-17.688999 20.52 -61.784199
-17.024 20.52 -61.024601
-16.358999 20.52 -60.633999
-15.694 20.52 -60.171398
-15.029 20.52 -59.77
-14.364 20.52 -59.264198
-13.699 20.52 -58.7728
-13.034 20.52 -58.533401
-12.369 20.52 -57.935799
-11.704 20.52 -57.494801
-11.039 20.52 -56.9818
-10.374 20.52 -56.247398
-9.7089996 20.52 -54.757
-9.0439997 20.52 -55.09
-8.3789997 20.52 -55.529202
-7.7140002 20.52 -54.828999
-7.0489998 20.52 -54.357399
-6.3839998 20.52 -53.7742
-5.7189999 20.52 -52.821999
-5.0539999 20.52 -51.878799
-4.3889999 20.52 -50.955399
-3.724 20.52 -49.760201
-3.059 20.52 -48.694599
-2.3940001 20.52 -47.069199
-1.729 20.52 -45.675999
-1.064 20.52 -44.455601
-0.39899999 20.52 -43.758999
0.266 20.52 -42.902199
0.93099999 20.52 -42.236198
1.596 20.52 -41.3866
2.2609999 20.52 -40.429001
2.9260001 20.52 -39.858398
3.5910001 20.52 -39.188801
4.256 20.52 -38.584
4.921 20.52 -37.808201
5.586 20.52 -37.183601
6.2509999 20.52 -36.618401
6.9159999 20.52 -36.0298
7.5809999 20.52 -35.6698
8.2460003 20.52 -35.149601
8.9110003 20.52 -34.4188
9.5760002 20.52 -34.4296
10.241 20.52 -34.307201
10.906 20.52 -34.2136
11.571 20.52 -33.769001
12.236 20.52 -33.376598
12.901 20.52 -33.243401
13.566 20.52 -32.991402
14.231 20.52 -32.7034
14.896 20.52 -32.413601
15.561 20.52 -32.210201
16.226 20.52 -33.9562
16.891001 20.52 -34.307201
17.556 20.52 -32.1418
18.221001 20.52 -31.933001
18.886 20.52 -31.9888
19.551001 20.52 -31.787201
20.216 20.52 -31.7026
20.881001 20.52 -31.621599
21.546 20.52 -31.448799
22.211 20.52 -31.351601
22.875999 20.52 -31.339001
23.541 20.52 -31.204
24.205999 20.52 -31.302999
24.871 20.52 -31.4506
25.535999 20.52 -30.842199
26.201 20.52 -30.907
26.865999 20.52 -31.200399
27.531 20.52 -31.3876
28.195999 20.52 -31.5874
28.861 20.52 -31.7008
29.525999 20.52 -31.922199
30.191 20.52 -31.965401
30.856001 20.52 -32.037399
31.521 20.52 -32.1814
32.186001 20.52 -32.055401
32.851002 20.52 -32.019402
33.515999 20.52 -31.979799
34.181 20.52 -32.273201
34.846001 20.52 -32.469398
35.511002 20.52 -32.645802
36.175999 20.52 -32.8564
36.841 20.52 -33.081402
37.506001 20.52 -33.3046
38.171001 20.52 -33.596199
38.835999 20.52 -33.914799
39.500999 20.52 -34.121799
40.166 20.52 -35.028999
40.831001 20.52 -36.098202
41.495998 20.52 -37.261002
42.160999 20.52 -37.540001
42.826 20.52 -37.615601
43.491001 20.52 -37.838799
44.155998 20.52 -37.905399
44.820999 20.52 -37.882
45.486 20.52 -38.458
46.151001 20.52 -39.061001
46.816002 20.52 -39.885399
47.480999 20.52 -40.722401
48.146 20.52 -41.132801
48.811001 20.52 -40.5928
49.476002 20.52 -40.618
50.140999 20.52 -40.5172
50.806 20.52 -40.6306
51.471001 20.52 -40.645
52.136002 20.52 -40.684601
52.800999 20.52 -40.951
53.466 20.52 -40.7206
54.131001 20.52 -41.458599
54.796001 20.52 -41.240799
55.460999 20.52 -40.522598
56.125999 20.52 -40.344398
56.791 20.52 -40.342602
57.456001 20.52 -41.041
58.120998 20.52 -41.363201
58.785999 20.52 -41.021198
59.451 20.52 -41.3866
60.116001 20.52 -41.597198
60.780998 20.52 -41.426201
61.445999 20.52 -41.347
62.111 20.52 -41.6278
62.776001 20.52 -41.491001
63.441002 20.52 -41.618801
64.106003 20.52 -41.726799
64.771004 20.52 -42.144402
65.435997 20.52 -43.202801
66.100998 20.52 -42.207401
66.765999 20.52 -42.563801
67.431 20.52 -42.652
68.096001 20.52 -43.037201
68.761002 20.52 -43.562801
69.426003 20.52 -43.357601
70.091003 20.52 -43.287399
70.755997 20.52 -43.535801
71.420998 20.52 -43.588001
72.085999 20.52 -43.760799
72.750999 20.52 -43.730202
73.416 20.52 -43.935398
74.081001 20.52 -43.911999
74.746002 20.52 -43.766201
75.411003 20.52 -43.7122
76.075996 20.52 -43.8382
76.740997 20.52 -44.394402
77.405998 20.52 -44.3242
78.070999 20.52 -44.831799
78.736 20.52 -45.0658
79.401001 20.52 -44.972198
80.066002 20.52 -45.377201
80.731003 20.52 -45.9244
81.396004 20.52 -46.496799
82.060997 20.52 -47.191601
82.725998 20.52 -47.645199
83.390999 20.52 -48.093399
84.056 20.52 -48.493
84.721001 20.52 -49.176998
85.386002 20.52 -50.022999
86.051003 20.52 -50.851002
86.716003 20.52 -51.583599
87.380997 20.52 -52.2658
88.045998 20.52 -52.7752
88.710999 20.52 -53.480801
89.375999 20.52 -54.004601
90.041 20.52 -54.575199
90.706001 20.52 -54.9748
91.371002 20.52 -55.243
92.036003 20.52 -56.690201
92.700996 20.52 -inf
-42.293999 21.24 -inf
-41.629002 21.24 -inf
-40.964001 21.24 -inf
-40.299 21.24 -inf
-39.633999 21.24 -inf
-38.969002 21.24 -inf
-38.304001 21.24 -inf
-37.639 21.24 -inf
-36.973999 21.24 -inf
-36.308998 21.24 -inf
-35.644001 21.24 -inf
-34.979 21.24 -inf
-34.313999 21.24 -inf
-33.648998 21.24 -inf
-32.984001 21.24 -inf
-32.319 21.24 -inf
-31.653999 21.24 -inf
-30.989 21.24 -inf
-30.323999 21.24 -73.2304
-29.659 21.24 -72.225998
-28.993999 21.24 -71.653603
-28.329 21.24 -70.870598
-27.664 21.24 -70.233398
-26.999001 21.24 -69.585403
-26.334 21.24 -68.860001
-25.669001 21.24 -68.329002
-25.004 21.24 -67.843002
-24.339001 21.24 -67.184196
-23.674 21.24 -66.5308
-23.009001 21.24 -65.474197
-22.344 21.24 -64.782997
-21.679001 21.24 -64.311401
-21.014 21.24 -63.8866
-20.349001 21.24 -63.184601
-19.684 21.24 -63.316002
-19.018999 21.24 -63.204399
-18.354 21.24 -62.201801
-17.688999 21.24 -61.5826
-17.024 21.24 -61.197399
-16.358999 21.24 -60.813999
-15.694 21.24 -60.486401
-15.029 21.24 -60.030998
-14.364 21.24 -59.363201
-13.699 21.24 -59.008598
-13.034 21.24 -58.632401
-12.369 21.24 -58.187801
-11.704 21.24 -57.870998
-11.039 21.24 -57.552399
-10.374 21.24 -57.323799
-9.7089996 21.24 -56.898998
-9.0439997 21.24 -56.249199
-8.3789997 21.24 -55.7146
-7.7140002 21.24 -55.214199
-7.0489998 21.24 -54.510399
-6.3839998 21.24 -53.905602
-5.7189999 21.24 -53.2486
-5.0539999 21.24 -52.411598
-4.3889999 21.24 -51.070599
-3.724 21.24 -49.895199
-3.059 21.24 -48.4534
-2.3940001 21.24 -47.070999
-1.729 21.24 -46.232201
-1.064 21.24 -45.022598
-0.39899999 21.24 -44.1064
0.266 21.24 -43.318001
0.93099999 21.24 -42.6394
1.596 21.24 -41.975201
2.2609999 21.24 -40.686401
2.9260001 21.24 -40.011398
3.5910001 21.24 -39.3922
4.256 21.24 -38.681198
4.921 21.24 -38.051201
5.586 21.24 -37.259201
6.2509999 21.24 -36.6022
6.9159999 21.24 -36.175598
7.5809999 21.24 -35.7472
8.2460003 21.24 -35.3134
8.9110003 21.24 -34.771599
9.5760002 21.24 -34.517799
10.241 21.24 -34.436798
10.906 21.24 -34.2136
11.571 21.24 -34.039001
12.236 21.24 -33.688
12.901 21.24 -33.4468
13.566 21.24 -33.245201
14.231 21.24 -32.919399
14.896 21.24 -32.631401
15.561 21.24 -32.5396
16.226 21.24 -32.379398
16.891001 21.24 -32.300201
17.556 21.24 -32.323601
18.221001 21.24 -31.979799
18.886 21.24 -31.9762
19.551001 21.24 -31.8232
20.216 21.24 -31.6234
20.881001 21.24 -31.500999
21.546 21.24 -31.385799
22.211 21.24 -31.2022
22.875999 21.24 -31.1374
23.541 21.24 -31.0348
24.205999 21.24 -31.122999
24.871 21.24 -31.211201
25.535999 21.24 -30.822399
26.201 21.24 -30.988001
26.865999 21.24 -31.0492
27.531 21.24 -31.558599
28.195999 21.24 -31.6126
28.861 21.24 -31.686399
29.525999 21.24 -31.816
30.191 21.24 -31.934799
30.856001 21.24 -32.114799
31.521 21.24 -32.069801
32.186001 21.24 -32.127399
32.851002 21.24 -31.965401
33.515999 21.24 -32.284
34.181 21.24 -32.3074
34.846001 21.24 -32.591801
35.511002 21.24 -32.824001
36.175999 21.24 -32.894199
36.841 21.24 -33.1912
37.506001 21.24 -33.297401
38.171001 21.24 -33.558399
38.835999 21.24 -33.423401
39.500999 21.24 -34.0984
40.166 21.24 -34.982201
40.831001 21.24 -36.107201
41.495998 21.24 -37.149399
42.160999 21.24 -37.7416
42.826 21.24 -37.707401
43.491001 21.24 -37.4734
44.155998 21.24 -37.610199
44.820999 21.24 -38.106998
45.486 21.24 -38.5732
46.151001 21.24 -39.230202
46.816002 21.24 -39.591999
47.480999 21.24 -40.879002
48.146 21.24 -41.377602
48.811001 21.24 -41.195801
49.476002 21.24 -40.951
50.140999 21.24 -41.221001
50.806 21.24 -41.123798
51.471001 21.24 -41.014
52.136002 21.24 -41.1922
52.800999 21.24 -40.954601
53.466 21.24 -41.330799
54.131001 21.24 -41.541401
54.796001 21.24 -41.145401
55.460999 21.24 -41.017601
56.125999 21.24 -41.3578
56.791 21.24 -40.907799
57.456001 21.24 -41.017601
58.120998 21.24 -41.347
58.785999 21.24 -41.213799
59.451 21.24 -41.391998
60.116001 21.24 -42.108398
60.780998 21.24 -41.669201
61.445999 21.24 -41.9482
62.111 21.24 -41.413601
62.776001 21.24 -42.160599
63.441002 21.24 -41.6908
64.106003 21.24 -42.007599
64.771004 21.24 -42.338799
65.435997 21.24 -42.796001
66.100998 21.24 -42.9958
66.765999 21.24 -43.091202
67.431 21.24 -42.862598
68.096001 21.24 -43.084
68.761002 21.24 -43.3414
69.426003 21.24 -43.534
70.091003 21.24 -44.135201
70.755997 21.24 -44.0938
71.420998 21.24 -44.378201
72.085999 21.24 -44.219799
72.750999 21.24 -43.7374
73.416 21.24 -43.604198
74.081001 21.24 -43.638401
74.746002 21.24 -43.807598
75.411003 21.24 -43.854401
76.075996 21.24 -43.7878
76.740997 21.24 -44.173
77.405998 21.24 -44.417801
78.070999 21.24 -44.443001
78.736 21.24 -44.6698
79.401001 21.24 -45.202599
80.066002 21.24 -45.735401
80.731003 21.24 -45.91
81.396004 21.24 -46.734402
82.060997 21.24 -47.375198
82.725998 21.24 -47.819801
83.390999 21.24 -48.039398
84.056 21.24 -48.3508
84.721001 21.24 -48.910599
85.386002 21.24 -49.736801
86.051003 21.24 -50.645802
86.716003 21.24 -51.355
87.380997 21.24 -52.0228
88.045998 21.24 -52.498001
88.710999 21.24 -53.153198
89.375999 21.24 -53.651798
90.041 21.24 -54.152199
90.706001 21.24 -54.328602
91.371002 21.24 -54.694
92.036003 21.24 -55.4986
92.700996 21.24 -55.352798
-42.293999 21.959999 -inf
-41.629002 21.959999 -inf
-40.964001 21.959999 -inf
-40.299 21.959999 -inf
-39.633999 21.959999 -inf
-38.969002 21.959999 -inf
-38.304001 21.959999 -inf
-37.639 21.959999 -inf
-36.973999 21.959999 -inf
-36.308998 21.959999 -inf
-35.644001 21.959999 -inf
-34.979 21.959999 -inf
-34.313999 21.959999 -inf
-33.648998 21.959999 -inf
-32.984001 21.959999 -inf
-32.319 21.959999 -inf
-31.653999 21.959999 -inf
-30.989 21.959999 -inf
-30.323999 21.959999 -inf
-29.659 21.959999 -72.541
-28.993999 21.959999 -72.179199
-28.329 21.959999 -71.302597
-27.664 21.959999 -70.967796
-26.999001 21.959999 -70.1884
-26.334 21.959999 -69.527802
-25.669001 21.959999 -68.829399
-25.004 21.959999 -67.954597
-24.339001 21.959999 -67.564003
-23.674 21.959999 -66.899803
-23.009001 21.959999 -65.963799
-22.344 21.959999 -64.9972
-21.679001 21.959999 -64.390602
-21.014 21.959999 -63.971199
-20.349001 21.959999 -63.636398
-19.684 21.959999 -63.472599
-19.018999 21.959999 -63.294399
-18.354 21.959999 -62.882198
-17.688999 21.959999 -62.0956
-17.024 21.959999 -61.487202
-16.358999 21.959999 -60.8284
-15.694 21.959999 -60.4828
-15.029 21.959999 -60.174999
-14.364 21.959999 -59.879799
-13.699 21.959999 -59.292999
-13.034 21.959999 -58.954601
-12.369 21.959999 -58.4128
-11.704 21.959999 -58.1824
-11.039 21.959999 -57.7216
-10.374 21.959999 -57.187
-9.7089996 21.959999 -56.782001
-9.0439997 21.959999 -56.1394
-8.3789997 21.959999 -55.810001
-7.7140002 21.959999 -55.367199
-7.0489998 21.959999 -54.827202
-6.3839998 21.959999 -53.880402
-5.7189999 21.959999 -53.405201
-5.0539999 21.959999 -52.422401
-4.3889999 21.959999 -51.2164
-3.724 21.959999 -50.014
-3.059 21.959999 -48.448002
-2.3940001 21.959999 -47.423801
-1.729 21.959999 -46.0648
-1.064 21.959999 -45.247601
-0.39899999 21.959999 -44.7202
0.266 21.959999 -43.906601
0.93099999 21.959999 -42.806801
1.596 21.959999 -41.8456
2.2609999 21.959999 -40.979801
2.9260001 21.959999 -40.266998
3.5910001 21.959999 -39.521801
4.256 21.959999 -38.796398
4.921 21.959999 -38.3176
5.586 21.959999 -37.950401
6.2509999 21.959999 -37.185398
6.9159999 21.959999 -36.748001
7.5809999 21.959999 -35.957802
8.2460003 21.959999 -35.482601
8.9110003 21.959999 -34.6852
9.5760002 21.959999 -34.427799
10.241 21.959999 -34.4944
10.906 21.959999 -34.2766
11.571 21.959999 -34.228001
12.236 21.959999 -33.848202
12.901 21.959999 -33.704201
13.566 21.959999 -33.3424
14.231 21.959999 -33.056198
14.896 21.959999 -32.824001
15.561 21.959999 -32.7682
16.226 21.959999 -32.687199
16.891001 21.959999 -32.5504
17.556 21.959999 -32.343399
18.221001 21.959999 -32.415401
18.886 21.959999 -32.1562
19.551001 21.959999 -31.834
20.216 21.959999 -31.5406
20.881001 21.959999 -31.430799
21.546 21.959999 -31.3498
22.211 21.959999 -31.2724
22.875999 21.959999 -31.348
23.541 21.959999 -31.0798
24.205999 21.959999 -31.245399
24.871 21.959999 -31.2202
25.535999 21.959999 -31.313801
26.201 21.959999 -31.096001
26.865999 21.959999 -31.4452
27.531 21.959999 -31.6126
28.195999 21.959999 -32.0014
28.861 21.959999 -31.987
29.525999 21.959999 -32.022999
30.191 21.959999 -31.9006
30.856001 21.959999 -32.068001
31.521 21.959999 -32.068001
32.186001 21.959999 -32.2066
32.851002 21.959999 -32.248001
33.515999 21.959999 -32.5144
34.181 21.959999 -32.688999
34.846001 21.959999 -32.687199
35.511002 21.959999 -33.029202
36.175999 21.959999 -33.018398
36.841 21.959999 -33.337002
37.506001 21.959999 -33.353199
38.171001 21.959999 -33.376598
38.835999 21.959999 -33.346001
39.500999 21.959999 -34.217201
40.166 21.959999 -34.976799
40.831001 21.959999 -36.0784
41.495998 21.959999 -36.991001
42.160999 21.959999 -38.026001
42.826 21.959999 -38.215
43.491001 21.959999 -39.437199
44.155998 21.959999 -38.619999
44.820999 21.959999 -38.452599
45.486 21.959999 -38.717201
46.151001 21.959999 -39.2356
46.816002 21.959999 -39.752201
47.480999 21.959999 -40.499199
48.146 21.959999 -41.057201
48.811001 21.959999 -40.9492
49.476002 21.959999 -41.5522
50.140999 21.959999 -41.59
50.806 21.959999 -41.606201
51.471001 21.959999 -41.228199
52.136002 21.959999 -41.885201
52.800999 21.959999 -41.877998
53.466 21.959999 -41.6008
54.131001 21.959999 -41.7052
54.796001 21.959999 -41.489201
55.460999 21.959999 -41.554001
56.125999 21.959999 -40.918598
56.791 21.959999 -41.159801
57.456001 21.959999 -41.2444
58.120998 21.959999 -41.3074
58.785999 21.959999 -41.804199
59.451 21.959999 -41.739399
60.116001 21.959999 -41.915798
60.780998 21.959999 -41.814999
61.445999 21.959999 -41.629601
62.111 21.959999 -42.020199
62.776001 21.959999 -41.989601
63.441002 21.959999 -42.426998
64.106003 21.959999 -42.5728
64.771004 21.959999 -42.480999
65.435997 21.959999 -42.783401
66.100998 21.959999 -42.716801
66.765999 21.959999 -42.7402
67.431 21.959999 -43.255001
68.096001 21.959999 -43.553799
68.761002 21.959999 -43.510601
69.426003 21.959999 -43.562801
70.091003 21.959999 -43.3396
70.755997 21.959999 -43.823799
71.420998 21.959999 -44.4142
72.085999 21.959999 -44.421398
72.750999 21.959999 -44.5312
73.416 21.959999 -44.356602
74.081001 21.959999 -44.003799
74.746002 21.959999 -43.694199
75.411003 21.959999 -44.317001
76.075996 21.959999 -44.500599
76.740997 21.959999 -44.714802
77.405998 21.959999 -44.4772
78.070999 21.959999 -44.293598
78.736 21.959999 -44.5042
79.401001 21.959999 -44.577999
80.066002 21.959999 -45.535599
80.731003 21.959999 -46.4842
81.396004 21.959999 -46.696602
82.060997 21.959999 -47.263599
82.725998 21.959999 -47.540798
83.390999 21.959999 -47.962002
84.056 21.959999 -48.448002
84.721001 21.959999 -48.826
85.386002 21.959999 -49.556801
86.051003 21.959999 -50.480202
86.716003 21.959999 -51.1894
87.380997 21.959999 -51.7402
88.045998 21.959999 -52.0336
88.710999 21.959999 -52.998402
89.375999 21.959999 -53.264801
90.041 21.959999 -53.749001
90.706001 21.959999 -54.164799
91.371002 21.959999 -54.3592
92.036003 21.959999 -54.415001
92.700996 21.959999 -inf
-42.293999 22.68 -inf
-41.629002 22.68 -inf
-40.964001 22.68 -inf
-40.299 22.68 -inf
-39.633999 22.68 -inf
-38.969002 22.68 -inf
-38.304001 22.68 -inf
-37.639 22.68 -inf
-36.973999 22.68 -inf
-36.308998 22.68 -inf
-35.644001 22.68 -inf
-34.979 22.68 -inf
-34.313999 22.68 -inf
-33.648998 22.68 -inf
-32.984001 22.68 -inf
-32.319 22.68 -inf
-31.653999 22.68 -inf
-30.989 22.68 -inf
-30.323999 22.68 -inf
-29.659 22.68 -72.791199
-28.993999 22.68 -72.918999
-28.329 22.68 -72.3358
-27.664 22.68 -71.275597
-26.999001 22.68 -70.514198
-26.334 22.68 -70.029999
-25.669001 22.68 -69.230797
-25.004 22.68 -68.478401
-24.339001 22.68 -68.237198
-23.674 22.68 -67.472198
-23.009001 22.68 -66.687401
-22.344 22.68 -65.459801
-21.679001 22.68 -64.863998
-21.014 22.68 -64.334801
-20.349001 22.68 -63.614799
-19.684 22.68 -63.325001
-19.018999 22.68 -63.044201
-18.354 22.68 -62.662601
-17.688999 22.68 -62.2234
-17.024 22.68 -62.054199
-16.358999 22.68 -61.683399
-15.694 22.68 -61.280201
-15.029 22.68 -60.875198
-14.364 22.68 -60.5746
-13.699 22.68 -59.937401
-13.034 22.68 -59.548599
-12.369 22.68 -58.751202
-11.704 22.68 -58.243599
-11.039 22.68 -57.709
-10.374 22.68 -57.370602
-9.7089996 22.68 -56.845001
-9.0439997 22.68 -56.198799
-8.3789997 22.68 -55.666
-7.7140002 22.68 -55.210602
-7.0489998 22.68 -54.764198
-6.3839998 22.68 -53.9128
-5.7189999 22.68 -53.189201
-5.0539999 22.68 -52.388199
-4.3889999 22.68 -51.0238
-3.724 22.68 -50.085999
-3.059 22.68 -48.566799
-2.3940001 22.68 -47.4958
-1.729 22.68 -46.399601
-1.064 22.68 -45.740799
-0.39899999 22.68 -44.882198
0.266 22.68 -43.746399
0.93099999 22.68 -42.895
1.596 22.68 -42.171398
2.2609999 22.68 -41.339802
2.9260001 22.68 -40.371399
3.5910001 22.68 -39.7216
4.256 22.68 -39.168999
4.921 22.68 -38.486801
5.586 22.68 -37.833401
6.2509999 22.68 -37.635399
6.9159999 22.68 -37.185398
7.5809999 22.68 -36.434799
8.2460003 22.68 -35.875
8.9110003 22.68 -34.8508
9.5760002 22.68 -34.773399
10.241 22.68 -34.681599
10.906 22.68 -34.3936
11.571 22.68 -34.438599
12.236 22.68 -34.111
12.901 22.68 -33.833801
13.566 22.68 -33.625
14.231 22.68 -33.326199
14.896 22.68 -33.210999
15.561 22.68 -33.133598
16.226 22.68 -32.9104
16.891001 22.68 -32.653
17.556 22.68 -32.561199
18.221001 22.68 -32.391998
18.886 22.68 -32.145401
19.551001 22.68 -36.748001
20.216 22.68 -36.748001
20.881001 22.68 -31.465
21.546 22.68 -31.558599
22.211 22.68 -31.6378
22.875999 22.68 -31.7062
23.541 22.68 -31.384001
24.205999 22.68 -30.995199
24.871 22.68 -30.9268
25.535999 22.68 -31.243601
26.201 22.68 -31.285
26.865999 22.68 -31.4146
27.531 22.68 -31.375
28.195999 22.68 -32.0914
28.861 22.68 -32.118401
29.525999 22.68 -31.879
30.191 22.68 -31.684601
30.856001 22.68 -32.194
31.521 22.68 -32.3866
32.186001 22.68 -32.510799
32.851002 22.68 -32.563
33.515999 22.68 -32.7808
34.181 22.68 -32.930199
34.846001 22.68 -32.8204
35.511002 22.68 -33.403599
36.175999 22.68 -33.092201
36.841 22.68 -33.529598
37.506001 22.68 -33.601601
38.171001 22.68 -33.6646
38.835999 22.68 -33.871601
39.500999 22.68 -34.598801
40.166 22.68 -34.933601
40.831001 22.68 -36.000999
41.495998 22.68 -37.028801
42.160999 22.68 -37.952202
42.826 22.68 -38.996201
43.491001 22.68 -39.8386
44.155998 22.68 -40.0942
44.820999 22.68 -38.652401
45.486 22.68 -38.618198
46.151001 22.68 -38.855801
46.816002 22.68 -39.309399
47.480999 22.68 -40.614399
48.146 22.68 -41.260601
48.811001 22.68 -41.382999
49.476002 22.68 -41.289398
50.140999 22.68 -41.860001
50.806 22.68 -42.2272
51.471001 22.68 -41.982399
52.136002 22.68 -42.333401
52.800999 22.68 -42.128201
53.466 22.68 -41.994999
54.131001 22.68 -41.778999
54.796001 22.68 -41.7682
55.460999 22.68 -41.645802
56.125999 22.68 -41.4856
56.791 22.68 -41.777199
57.456001 22.68 -41.624199
58.120998 22.68 -41.653
58.785999 22.68 -41.631401
59.451 22.68 -42.108398
60.116001 22.68 -41.944599
60.780998 22.68 -41.8978
61.445999 22.68 -42.112
62.111 22.68 -42.263199
62.776001 22.68 -42.389198
63.441002 22.68 -42.346001
64.106003 22.68 -42.835602
64.771004 22.68 -43.177601
65.435997 22.68 -42.9076
66.100998 22.68 -43.138
66.765999 22.68 -43.425999
67.431 22.68 -43.769798
68.096001 22.68 -43.5952
68.761002 22.68 -43.811199
69.426003 22.68 -43.7626
70.091003 22.68 -43.742802
70.755997 22.68 -44.036201
71.420998 22.68 -44.091999
72.085999 22.68 -44.284599
72.750999 22.68 -44.417801
73.416 22.68 -44.333199
74.081001 22.68 -44.7094
74.746002 22.68 -44.965
75.411003 22.68 -44.561798
76.075996 22.68 -44.520401
76.740997 22.68 -44.640999
77.405998 22.68 -44.533001
78.070999 22.68 -44.3512
78.736 22.68 -44.577999
79.401001 22.68 -44.8246
80.066002 22.68 -45.434799
80.731003 22.68 -46.540001
81.396004 22.68 -46.617401
82.060997 22.68 -47.0116
82.725998 22.68 -47.436401
83.390999 22.68 -47.9296
84.056 22.68 -48.361599
84.721001 22.68 -48.602798
85.386002 22.68 -48.610001
86.051003 22.68 -50.199402
86.716003 22.68 -50.901402
87.380997 22.68 -51.311798
88.045998 22.68 -51.849998
88.710999 22.68 -52.3792
89.375999 22.68 -52.6492
90.041 22.68 -53.322399
90.706001 22.68 -53.408798
91.371002 22.68 -53.6968
92.036003 22.68 -53.903801
92.700996 22.68 -inf
-42.293999 23.4 -inf
-41.629002 23.4 -inf
-40.964001 23.4 -inf
-40.299 23.4 -inf
-39.633999 23.4 -inf
-38.969002 23.4 -inf
-38.304001 23.4 -inf
-37.639 23.4 -inf
-36.973999 23.4 -inf
-36.308998 23.4 -inf
-35.644001 23.4 -inf
-34.979 23.4 -inf
-34.313999 23.4 -inf
-33.648998 23.4 -inf
-32.984001 23.4 -inf
-32.319 23.4 -inf
-31.653999 23.4 -inf
-30.989 23.4 -inf
-30.323999 23.4 -inf
-29.659 23.4 -inf
-28.993999 23.4 -73.059402
-28.329 23.4 -73.122398
-27.664 23.4 -72.393402
-26.999001 23.4 -71.655403
-26.334 23.4 -70.512398
-25.669001 23.4 -69.822998
-25.004 23.4 -69.084999
-24.339001 23.4 -68.350601
-23.674 23.4 -67.794403
-23.009001 23.4 -67.371399
-22.344 23.4 -66.244598
-21.679001 23.4 -65.502998
-21.014 23.4 -65.254601
-20.349001 23.4 -64.822601
-19.684 23.4 -64.257401
-19.018999 23.4 -63.4384
-18.354 23.4 -62.9776
-17.688999 23.4 -62.561798
-17.024 23.4 -62.1604
-16.358999 23.4 -61.8382
-15.694 23.4 -61.471001
-15.029 23.4 -61.2118
-14.364 23.4 -60.673599
-13.699 23.4 -60.2812
-13.034 23.4 -59.822201
-12.369 23.4 -59.224602
-11.704 23.4 -58.526199
-11.039 23.4 -57.9916
-10.374 23.4 -57.422798
-9.7089996 23.4 -56.945801
-9.0439997 23.4 -56.4328
-8.3789997 23.4 -55.579601
-7.7140002 23.4 -54.893799
-7.0489998 23.4 -54.560799
-6.3839998 23.4 -53.992001
-5.7189999 23.4 -53.162201
-5.0539999 23.4 -52.377399
-4.3889999 23.4 -50.982399
-3.724 23.4 -49.889801
-3.059 23.4 -48.586601
-2.3940001 23.4 -47.706402
-1.729 23.4 -46.6912
-1.064 23.4 -46.030602
-0.39899999 23.4 -45.049599
0.266 23.4 -44.181999
0.93099999 23.4 -42.966999
1.596 23.4 -42.196602
2.2609999 23.4 -41.598999
2.9260001 23.4 -40.841202
3.5910001 23.4 -39.944801
4.256 23.4 -39.163601
4.921 23.4 -38.668598
5.586 23.4 -38.033199
6.2509999 23.4 -37.763199
6.9159999 23.4 -37.278999
7.5809999 23.4 -36.762402
8.2460003 23.4 -35.896599
8.9110003 23.4 -35.3116
9.5760002 23.4 -35.153198
10.241 23.4 -34.841801
10.906 23.4 -34.670799
11.571 23.4 -34.748199
12.236 23.4 -34.3414
12.901 23.4 -33.949001
13.566 23.4 -33.844601
14.231 23.4 -33.736599
14.896 23.4 -33.480999
15.561 23.4 -33.234402
16.226 23.4 -33.094002
16.891001 23.4 -32.964401
17.556 23.4 -32.899601
18.221001 23.4 -32.469398
18.886 23.4 -32.257
19.551001 23.4 -32.073399
20.216 23.4 -31.7764
20.881001 23.4 -31.618
21.546 23.4 -31.7008
22.211 23.4 -32.100399
22.875999 23.4 -31.8736
23.541 23.4 -31.7206
24.205999 23.4 -31.7584
24.871 23.4 -31.2976
25.535999 23.4 -31.2544
26.201 23.4 -31.5172
26.865999 23.4 -31.906
27.531 23.4 -32.174198
28.195999 23.4 -32.339802
28.861 23.4 -31.992399
29.525999 23.4 -32.136398
30.191 23.4 -32.1688
30.856001 23.4 -32.365002
31.521 23.4 -32.5756
32.186001 23.4 -32.764599
32.851002 23.4 -33.0868
33.515999 23.4 -33.1138
34.181 23.4 -33.2038
34.846001 23.4 -33.054401
35.511002 23.4 -33.439602
36.175999 23.4 -33.319
36.841 23.4 -33.770802
37.506001 23.4 -34.055199
38.171001 23.4 -34.082199
38.835999 23.4 -34.3162
39.500999 23.4 -35.037998
40.166 23.4 -35.410599
40.831001 23.4 -36.375401
41.495998 23.4 -37.403198
42.160999 23.4 -38.510201
42.826 23.4 -39.3904
43.491001 23.4 -40.1068
44.155998 23.4 -40.466801
44.820999 23.4 -40.868198
45.486 23.4 -38.717201
46.151001 23.4 -38.886398
46.816002 23.4 -41.019402
47.480999 23.4 -41.012199
48.146 23.4 -41.382999
48.811001 23.4 -41.3074
49.476002 23.4 -41.5774
50.140999 23.4 -41.761002
50.806 23.4 -42.4468
51.471001 23.4 -42.614201
52.136002 23.4 -42.886002
52.800999 23.4 -42.567402
53.466 23.4 -42.426998
54.131001 23.4 -42.194801
54.796001 23.4 -41.903198
55.460999 23.4 -41.962601
56.125999 23.4 -41.942799
56.791 23.4 -42.095798
57.456001 23.4 -41.982399
58.120998 23.4 -42.0886
58.785999 23.4 -41.931999
59.451 23.4 -42.194801
60.116001 23.4 -42.072399
60.780998 23.4 -42.043598
61.445999 23.4 -42.2812
62.111 23.4 -42.671799
62.776001 23.4 -42.463001
63.441002 23.4 -42.625
64.106003 23.4 -42.706001
64.771004 23.4 -43.157799
65.435997 23.4 -43.145199
66.100998 23.4 -43.5952
66.765999 23.4 -43.84
67.431 23.4 -44.268398
68.096001 23.4 -44.227001
68.761002 23.4 -43.886799
69.426003 23.4 -44.056
70.091003 23.4 -43.8382
70.755997 23.4 -44.347599
71.420998 23.4 -44.585201
72.085999 23.4 -44.610401
72.750999 23.4 -44.6194
73.416 23.4 -44.509602
74.081001 23.4 -44.468201
74.746002 23.4 -44.676998
75.411003 23.4 -44.5672
76.075996 23.4 -44.883999
76.740997 23.4 -44.749001
77.405998 23.4 -44.776001
78.070999 23.4 -44.572601
78.736 23.4 -45.033401
79.401001 23.4 -45.098202
80.066002 23.4 -45.625599
80.731003 23.4 -46.363602
81.396004 23.4 -46.5382
82.060997 23.4 -47.007999
82.725998 23.4 -47.555199
83.390999 23.4 -47.810799
84.056 23.4 -48.2122
84.721001 23.4 -48.6334
85.386002 23.4 -49.256199
86.051003 23.4 -50.145401
86.716003 23.4 -50.530602
87.380997 23.4 -50.957199
88.045998 23.4 -51.3568
88.710999 23.4 -51.772598
89.375999 23.4 -52.215401
90.041 23.4 -52.807598
90.706001 23.4 -53.2738
91.371002 23.4 -53.561798
92.036003 23.4 -53.938
92.700996 23.4 -inf
-42.293999 24.120001 -inf
-41.629002 24.120001 -inf
-40.964001 24.120001 -inf
-40.299 24.120001 -inf
-39.633999 24.120001 -inf
-38.969002 24.120001 -inf
-38.304001 24.120001 -inf
-37.639 24.120001 -inf
-36.973999 24.120001 -inf
-36.308998 24.120001 -inf
-35.644001 24.120001 -inf
-34.979 24.120001 -inf
-34.313999 24.120001 -inf
-33.648998 24.120001 -inf
-32.984001 24.120001 -inf
-32.319 24.120001 -inf
-31.653999 24.120001 -inf
-30.989 24.120001 -inf
-30.323999 24.120001 -inf
-29.659 24.120001 -inf
-28.993999 24.120001 -74.294197
-28.329 24.120001 -73.088203
-27.664 24.120001 -72.841599
-26.999001 24.120001 -72.454597
-26.334 24.120001 -71.687798
-25.669001 24.120001 -70.960602
-25.004 24.120001 -70.017403
-24.339001 24.120001 -68.896004
-23.674 24.120001 -68.467598
-23.009001 24.120001 -67.621597
-22.344 24.120001 -66.746803
-21.679001 24.120001 -66.033997
-21.014 24.120001 -65.085403
-20.349001 24.120001 -64.8172
-19.684 24.120001 -64.507599
-19.018999 24.120001 -63.969398
-18.354 24.120001 -63.269199
-17.688999 24.120001 -63.046001
-17.024 24.120001 -62.716599
-16.358999 24.120001 -62.241402
-15.694 24.120001 -61.910198
-15.029 24.120001 -61.550201
-14.364 24.120001 -61.067799
-13.699 24.120001 -60.495399
-13.034 24.120001 -60.261398
-12.369 24.120001 -59.570202
-11.704 24.120001 -59.014
-11.039 24.120001 -58.2976
-10.374 24.120001 -57.583
-9.7089996 24.120001 -56.915199
-9.0439997 24.120001 -56.375198
-8.3789997 24.120001 -55.777599
-7.7140002 24.120001 -54.945999
-7.0489998 24.120001 -54.582401
-6.3839998 24.120001 -54.152199
-5.7189999 24.120001 -53.097401
-5.0539999 24.120001 -52.249599
-4.3889999 24.120001 -50.759201
-3.724 24.120001 -49.805199
-3.059 24.120001 -48.680199
-2.3940001 24.120001 -47.782001
-1.729 24.120001 -46.732601
-1.064 24.120001 -45.9856
-0.39899999 24.120001 -45.184601
0.266 24.120001 -44.419601
0.93099999 24.120001 -43.274799
1.596 24.120001 -42.4198
2.2609999 24.120001 -41.750198
2.9260001 24.120001 -40.699001
3.5910001 24.120001 -40.069
4.256 24.120001 -39.514599
4.921 24.120001 -38.733398
5.586 24.120001 -38.321201
6.2509999 24.120001 -37.9216
6.9159999 24.120001 -37.287998
7.5809999 24.120001 -36.623798
8.2460003 24.120001 -36.118
8.9110003 24.120001 -35.693199
9.5760002 24.120001 -35.340401
10.241 24.120001 -35.115398
10.906 24.120001 -34.991199
11.571 24.120001 -34.791401
12.236 24.120001 -34.417
12.901 24.120001 -34.190201
13.566 24.120001 -34.017399
14.231 24.120001 -33.819401
14.896 24.120001 -33.500801
15.561 24.120001 -33.326199
16.226 24.120001 -33.052601
16.891001 24.120001 -33.005798
17.556 24.120001 -32.942799
18.221001 24.120001 -32.836601
18.886 24.120001 -32.328999
19.551001 24.120001 -32.328999
20.216 24.120001 -32.139999
20.881001 24.120001 -31.9888
21.546 24.120001 -32.041
22.211 24.120001 -32.0914
22.875999 24.120001 -31.9582
23.541 24.120001 -31.999599
24.205999 24.120001 -32.145401
24.871 24.120001 -32.030201
25.535999 24.120001 -31.9312
26.201 24.120001 -31.774599
26.865999 24.120001 -31.9834
27.531 24.120001 -32.284
28.195999 24.120001 -32.561199
28.861 24.120001 -32.393799
29.525999 24.120001 -32.593601
30.191 24.120001 -32.498199
30.856001 24.120001 -32.591801
31.521 24.120001 -32.914001
32.186001 24.120001 -33.052601
32.851002 24.120001 -33.333401
33.515999 24.120001 -33.3172
34.181 24.120001 -33.414398
34.846001 24.120001 -33.414398
35.511002 24.120001 -33.626801
36.175999 24.120001 -33.8032
36.841 24.120001 -34.0714
37.506001 24.120001 -34.048
38.171001 24.120001 -34.017399
38.835999 24.120001 -34.751801
39.500999 24.120001 -35.307999
40.166 24.120001 -35.459202
40.831001 24.120001 -36.542801
41.495998 24.120001 -37.2808
42.160999 24.120001 -38.321201
42.826 24.120001 -39.208599
43.491001 24.120001 -39.728802
44.155998 24.120001 -40.364201
44.820999 24.120001 -40.8484
45.486 24.120001 -41.060799
46.151001 24.120001 -41.546799
46.816002 24.120001 -41.202999
47.480999 24.120001 -41.120201
48.146 24.120001 -41.532398
48.811001 24.120001 -41.953602
49.476002 24.120001 -42.009399
50.140999 24.120001 -42.400002
50.806 24.120001 -42.538601
51.471001 24.120001 -42.742001
52.136002 24.120001 -42.5998
52.800999 24.120001 -42.580002
53.466 24.120001 -42.4576
54.131001 24.120001 -42.1768
54.796001 24.120001 -42.000401
55.460999 24.120001 -42.124599
56.125999 24.120001 -41.651199
56.791 24.120001 -42.137199
57.456001 24.120001 -41.8186
58.120998 24.120001 -41.544998
58.785999 24.120001 -42.095798
59.451 24.120001 -41.784401
60.116001 24.120001 -42.299198
