# .PCD v0.7 - Point Cloud Data file format
VERSION 0.7
FIELDS x y z
SIZE 4 4 4
TYPE F F F
COUNT 1 1 1
WIDTH 1694
HEIGHT 1
VIEWPOINT 0 0 0 1 0 0 0
POINTS 1694
DATA ascii
-53.998001 -10.08 -60.3172
-53.333 -10.08 -60.002201
-52.667999 -10.08 -60.068802
-52.002998 -10.08 -60.018398
-51.338001 -10.08 -58.691799
-50.673 -10.08 -58.486599
-50.007999 -10.08 -57.998798
-49.342999 -10.08 -57.534401
-48.678001 -10.08 -56.362598
-48.013 -10.08 -55.584999
-47.348 -10.08 -55.223202
-46.682999 -10.08 -55.070202
-46.018002 -10.08 -55.2286
-45.353001 -10.08 -54.636398
-44.688 -10.08 -54.369999
-44.022999 -10.08 -54.1936
-43.358002 -10.08 -53.750801
-42.693001 -10.08 -53.144199
-42.028 -10.08 -52.771599
-41.362999 -10.08 -52.415199
-40.698002 -10.08 -52.132599
-40.033001 -10.08 -52.021
-39.368 -10.08 -51.889599
-38.702999 -10.08 -51.900398
-38.037998 -10.08 -51.382
-37.373001 -10.08 -50.9986
-36.708 -10.08 -50.737598
-36.042999 -10.08 -50.437
-35.377998 -10.08 -49.8988
-34.713001 -10.08 -49.724201
-34.048 -10.08 -49.943802
-33.382999 -10.08 -49.954601
-32.717999 -10.08 -49.999599
-32.053001 -10.08 -49.760201
-31.388 -10.08 -48.993401
-30.723 -10.08 -46.734402
-30.058001 -10.08 -45.748001
-29.393 -10.08 -45.427601
-28.728001 -10.08 -51.859001
-28.063 -10.08 -51.183998
-27.398001 -10.08 -51.162399
-26.733 -10.08 -44.846199
-26.068001 -10.08 -48.228401
-25.403 -10.08 -44.648201
-24.738001 -10.08 -44.648201
-24.073 -10.08 -45.060398
-23.408001 -10.08 -44.345798
-22.743 -10.08 -44.356602
-22.077999 -10.08 -inf
-21.413 -10.08 -inf
-20.747999 -10.08 -inf
-20.083 -10.08 -inf
-19.417999 -10.08 -inf
-18.753 -10.08 -43.4944
-18.087999 -10.08 -43.4422
-17.423 -10.08 -43.386398
-16.757999 -10.08 -43.0984
-16.093 -10.08 -50.2066
-15.428 -10.08 -42.722198
-14.763 -10.08 -42.5602
-14.098 -10.08 -42.142601
-13.433 -10.08 -41.877998
-12.768 -10.08 -41.797001
-12.103 -10.08 -41.950001
-11.438 -10.08 -41.701599
-10.773 -10.08 -41.671001
-10.108 -10.08 -41.734001
-9.4429998 -10.08 -41.9734
-8.7779999 -10.08 -41.5504
-8.1129999 -10.08 -41.381199
-7.448 -10.08 -41.464001
-6.783 -10.08 -41.5504
-6.118 -10.08 -41.257
-5.4530001 -10.08 -40.958199
-4.7880001 -10.08 -40.902401
-4.1230001 -10.08 -40.700802
-3.4579999 -10.08 -40.646801
-2.793 -10.08 -40.760201
-2.128 -10.08 -40.904202
-1.4630001 -10.08 -40.771
-0.79799998 -10.08 -40.436199
-0.133 -10.08 -40.3624
0.53200001 -10.08 -40.2598
1.197 -10.08 -40.218399
1.862 -10.08 -40.124802
2.527 -10.08 -39.982601
3.1919999 -10.08 -39.8638
3.8570001 -10.08 -39.7864
4.5219998 -10.08 -39.642399
5.1869998 -10.08 -39.4282
5.8520002 -10.08 -39.296799
6.5170002 -10.08 -39.037601
7.1820002 -10.08 -39.16
7.8470001 -10.08 -39.127602
8.5120001 -10.08 -38.898998
9.177 -10.08 -38.9062
9.842 -10.08 -38.735199
10.507 -10.08 -38.501202
11.172 -10.08 -38.486801
11.837 -10.08 -38.692001
12.502 -10.08 -38.6488
13.167 -10.08 -38.3554
13.832 -10.08 -37.865799
14.497 -10.08 -37.7812
15.162 -10.08 -37.673199
15.827 -10.08 -37.491402
16.492001 -10.08 -37.372601
17.157 -10.08 -37.2826
17.822001 -10.08 -37.313202
18.487 -10.08 -37.309601
19.152 -10.08 -36.926201
19.816999 -10.08 -36.978401
20.482 -10.08 -37.117001
21.146999 -10.08 -37.0378
21.812 -10.08 -36.931599
22.476999 -10.08 -37.111599
23.142 -10.08 -36.91
23.806999 -10.08 -36.6418
24.472 -10.08 -36.458199
25.136999 -10.08 -36.890202
25.802 -10.08 -36.847
26.466999 -10.08 -36.708401
27.132 -10.08 -36.661598
27.797001 -10.08 -36.418598
28.462 -10.08 -36.459999
29.127001 -10.08 -36.508598
29.792 -10.08 -36.179199
30.457001 -10.08 -36.137798
31.122 -10.08 -35.833599
31.787001 -10.08 -36.0532
32.452 -10.08 -36.173801
33.117001 -10.08 -36.137798
33.782001 -10.08 -35.506001
34.446999 -10.08 -35.757999
35.112 -10.08 -35.792198
35.777 -10.08 -35.430401
36.442001 -10.08 -35.5168
37.106998 -10.08 -35.394402
37.771999 -10.08 -35.396198
38.437 -10.08 -35.2882
39.102001 -10.08 -35.444801
39.766998 -10.08 -35.173
40.431999 -10.08 -35.2486
41.097 -10.08 -35.271999
41.762001 -10.08 -35.5312
42.426998 -10.08 -36.256599
43.091999 -10.08 -37.237598
43.757 -10.08 -37.696602
44.422001 -10.08 -38.657799
45.087002 -10.08 -39.8134
45.751999 -10.08 -41.024799
46.417 -10.08 -48.268002
47.082001 -10.08 -48.167198
47.747002 -10.08 -48.703602
48.411999 -10.08 -49.715199
49.077 -10.08 -53.640999
49.742001 -10.08 -53.640999
50.407001 -10.08 -inf
51.071999 -10.08 -inf
51.737 -10.08 -inf
52.402 -10.08 -58.8988
53.067001 -10.08 -59.6674
53.731998 -10.08 -60.247002
54.396999 -10.08 -60.445
55.062 -10.08 -60.950802
55.727001 -10.08 -61.049801
56.391998 -10.08 -62.101002
57.056999 -10.08 -62.703999
57.722 -10.08 -63.011799
58.387001 -10.08 -63.305199
59.051998 -10.08 -63.382599
59.716999 -10.08 -64.028801
60.382 -10.08 -64.6138
61.047001 -10.08 -65.137604
61.712002 -10.08 -65.722603
62.376999 -10.08 -67.958199
63.042 -10.08 -69.448601
63.707001 -10.08 -70.384598
64.372002 -10.08 -71.036201
65.037003 -10.08 -inf
65.702003 -10.08 -inf
66.366997 -10.08 -inf
67.031998 -10.08 -inf
67.696999 -10.08 -inf
68.362 -10.08 -inf
69.027 -10.08 -inf
69.692001 -10.08 -inf
70.357002 -10.08 -inf
71.022003 -10.08 -inf
71.686996 -10.08 -inf
72.351997 -10.08 -inf
73.016998 -10.08 -inf
73.681999 -10.08 -inf
74.347 -10.08 -inf
75.012001 -10.08 -inf
75.677002 -10.08 -inf
76.342003 -10.08 -inf
77.007004 -10.08 -inf
77.671997 -10.08 -inf
-63.973 -9.3599997 -inf
-63.307999 -9.3599997 -inf
-62.643002 -9.3599997 -inf
-61.978001 -9.3599997 -inf
-61.313 -9.3599997 -inf
-60.647999 -9.3599997 -inf
-59.983002 -9.3599997 -inf
-59.318001 -9.3599997 -inf
-58.653 -9.3599997 -61.114601
-57.987999 -9.3599997 -61.170399
-57.323002 -9.3599997 -60.934601
-56.658001 -9.3599997 -61.019199
-55.993 -9.3599997 -61.528599
-55.327999 -9.3599997 -61.121799
-54.662998 -9.3599997 -60.806801
-53.998001 -9.3599997 -60.448601
-53.333 -9.3599997 -60.180401
-52.667999 -9.3599997 -60.106602
-52.002998 -9.3599997 -59.604401
-51.338001 -9.3599997 -59.2192
-50.673 -9.3599997 -58.747601
-50.007999 -9.3599997 -57.9034
-49.342999 -9.3599997 -57.203201
-48.678001 -9.3599997 -56.4058
-48.013 -9.3599997 -55.622799
-47.348 -9.3599997 -55.3438
-46.682999 -9.3599997 -55.1278
-46.018002 -9.3599997 -54.976601
-45.353001 -9.3599997 -54.715599
-44.688 -9.3599997 -54.148602
-44.022999 -9.3599997 -53.419601
-43.358002 -9.3599997 -52.994801
-42.693001 -9.3599997 -52.715801
-42.028 -9.3599997 -52.460201
-41.362999 -9.3599997 -52.206402
-40.698002 -9.3599997 -52.107399
-40.033001 -9.3599997 -52.0588
-39.368 -9.3599997 -51.7276
-38.702999 -9.3599997 -51.295601
-38.037998 -9.3599997 -60.837399
-37.373001 -9.3599997 -60.837399
-36.708 -9.3599997 -50.226398
-36.042999 -9.3599997 -50.095001
-35.377998 -9.3599997 -49.763802
-34.713001 -9.3599997 -49.506401
-34.048 -9.3599997 -49.618
-33.382999 -9.3599997 -49.5784
-32.717999 -9.3599997 -49.826801
-32.053001 -9.3599997 -49.479401
-31.388 -9.3599997 -49.153599
-30.723 -9.3599997 -47.155602
-30.058001 -9.3599997 -49.747601
-29.393 -9.3599997 -49.747601
-28.728001 -9.3599997 -49.747601
-28.063 -9.3599997 -51.183998
-27.398001 -9.3599997 -49.013199
-26.733 -9.3599997 -49.013199
-26.068001 -9.3599997 -48.228401
-25.403 -9.3599997 -44.549198
-24.738001 -9.3599997 -44.520401
-24.073 -9.3599997 -45.506802
-23.408001 -9.3599997 -52.679798
-22.743 -9.3599997 -44.605
-22.077999 -9.3599997 -52.168598
-21.413 -9.3599997 -44.460999
-20.747999 -9.3599997 -44.3386
-20.083 -9.3599997 -44.003799
-19.417999 -9.3599997 -43.821999
-18.753 -9.3599997 -43.625801
-18.087999 -9.3599997 -43.551998
-17.423 -9.3599997 -43.6726
-16.757999 -9.3599997 -43.433201
-16.093 -9.3599997 -43.208199
-15.428 -9.3599997 -43.0354
-14.763 -9.3599997 -42.581799
-14.098 -9.3599997 -42.430599
-13.433 -9.3599997 -42.2794
-12.768 -9.3599997 -42.094002
-12.103 -9.3599997 -42.034599
-11.438 -9.3599997 -41.9482
-10.773 -9.3599997 -41.966202
-10.108 -9.3599997 -41.986
-9.4429998 -9.3599997 -41.939201
-8.7779999 -9.3599997 -41.625999
-8.1129999 -9.3599997 -41.4352
-7.448 -9.3599997 -41.498199
-6.783 -9.3599997 -41.489201
-6.118 -9.3599997 -41.478401
-5.4530001 -9.3599997 -41.2318
-4.7880001 -9.3599997 -41.022999
-4.1230001 -9.3599997 -41.057201
-3.4579999 -9.3599997 -40.947399
-2.793 -9.3599997 -40.853802
-2.128 -9.3599997 -41.049999
-1.4630001 -9.3599997 -40.828602
-0.79799998 -9.3599997 -40.5802
-0.133 -9.3599997 -40.556801
0.53200001 -9.3599997 -40.535198
1.197 -9.3599997 -40.346199
1.862 -9.3599997 -40.124802
2.527 -9.3599997 -40.277802
3.1919999 -9.3599997 -40.072601
3.8570001 -9.3599997 -40.0186
4.5219998 -9.3599997 -39.847599
5.1869998 -9.3599997 -39.797199
5.8520002 -9.3599997 -39.782799
6.5170002 -9.3599997 -39.591999
7.1820002 -9.3599997 -39.354401
7.8470001 -9.3599997 -39.3382
8.5120001 -9.3599997 -39.194199
9.177 -9.3599997 -39.1618
9.842 -9.3599997 -39.034
10.507 -9.3599997 -38.9044
11.172 -9.3599997 -38.7514
11.837 -9.3599997 -38.769402
12.502 -9.3599997 -38.564201
13.167 -9.3599997 -38.657799
13.832 -9.3599997 -38.389599
14.497 -9.3599997 -38.188
15.162 -9.3599997 -38.153801
15.827 -9.3599997 -38.070999
16.492001 -9.3599997 -37.837002
17.157 -9.3599997 -37.590401
17.822001 -9.3599997 -37.415798
18.487 -9.3599997 -37.444599
19.152 -9.3599997 -37.18
19.816999 -9.3599997 -37.1656
20.482 -9.3599997 -37.169201
21.146999 -9.3599997 -37.118801
21.812 -9.3599997 -37.106201
22.476999 -9.3599997 -37.091801
23.142 -9.3599997 -37.0648
23.806999 -9.3599997 -36.881199
24.472 -9.3599997 -36.8578
25.136999 -9.3599997 -36.773201
25.802 -9.3599997 -36.967602
26.466999 -9.3599997 -36.764198
27.132 -9.3599997 -36.454601
27.797001 -9.3599997 -36.3466
28.462 -9.3599997 -36.499599
29.127001 -9.3599997 -36.663399
29.792 -9.3599997 -36.096401
30.457001 -9.3599997 -35.983002
31.122 -9.3599997 -36.062199
31.787001 -9.3599997 -36.0406
32.452 -9.3599997 -36.031601
33.117001 -9.3599997 -35.867802
33.782001 -9.3599997 -35.416
34.446999 -9.3599997 -35.687801
35.112 -9.3599997 -35.718399
35.777 -9.3599997 -35.4142
36.442001 -9.3599997 -35.207199
37.106998 -9.3599997 -35.486198
37.771999 -9.3599997 -35.365601
38.437 -9.3599997 -35.534801
39.102001 -9.3599997 -35.104599
39.766998 -9.3599997 -35.4772
40.431999 -9.3599997 -35.4142
41.097 -9.3599997 -35.523998
41.762001 -9.3599997 -35.588799
42.426998 -9.3599997 -36.469002
43.091999 -9.3599997 -37.277199
43.757 -9.3599997 -37.898201
44.422001 -9.3599997 -38.767601
45.087002 -9.3599997 -39.462399
45.751999 -9.3599997 -40.882599
46.417 -9.3599997 -42.488201
47.082001 -9.3599997 -48.460602
47.747002 -9.3599997 -48.622601
48.411999 -9.3599997 -49.369598
49.077 -9.3599997 -50.347
49.742001 -9.3599997 -52.019199
50.407001 -9.3599997 -53.0686
51.071999 -9.3599997 -57.471401
51.737 -9.3599997 -58.522598
52.402 -9.3599997 -58.713402
53.067001 -9.3599997 -58.951
53.731998 -9.3599997 -59.451401
54.396999 -9.3599997 -60.120998
55.062 -9.3599997 -60.5746
55.727001 -9.3599997 -60.848202
56.391998 -9.3599997 -61.645599
57.056999 -9.3599997 -61.859798
57.722 -9.3599997 -62.716599
58.387001 -9.3599997 -62.898399
59.051998 -9.3599997 -63.298
59.716999 -9.3599997 -63.8722
60.382 -9.3599997 -64.455399
61.047001 -9.3599997 -65.384201
61.712002 -9.3599997 -66.467796
62.376999 -9.3599997 -67.850197
63.042 -9.3599997 -69.049004
63.707001 -9.3599997 -70.1092
64.372002 -9.3599997 -70.195602
65.037003 -9.3599997 -inf
65.702003 -9.3599997 -inf
66.366997 -9.3599997 -inf
67.031998 -9.3599997 -inf
67.696999 -9.3599997 -inf
68.362 -9.3599997 -inf
69.027 -9.3599997 -inf
69.692001 -9.3599997 -inf
70.357002 -9.3599997 -inf
71.022003 -9.3599997 -inf
71.686996 -9.3599997 -inf
72.351997 -9.3599997 -inf
73.016998 -9.3599997 -inf
73.681999 -9.3599997 -inf
74.347 -9.3599997 -inf
75.012001 -9.3599997 -inf
75.677002 -9.3599997 -inf
76.342003 -9.3599997 -inf
77.007004 -9.3599997 -inf
77.671997 -9.3599997 -inf
-63.973 -8.6400003 -inf
-63.307999 -8.6400003 -inf
-62.643002 -8.6400003 -inf
-61.978001 -8.6400003 -inf
-61.313 -8.6400003 -inf
-60.647999 -8.6400003 -inf
-59.983002 -8.6400003 -inf
-59.318001 -8.6400003 -inf
-58.653 -8.6400003 -62.104599
-57.987999 -8.6400003 -61.478199
-57.323002 -8.6400003 -61.411598
-56.658001 -8.6400003 -61.262199
-55.993 -8.6400003 -61.1506
-55.327999 -8.6400003 -61.229801
-54.662998 -8.6400003 -60.8302
-53.998001 -8.6400003 -60.502602
-53.333 -8.6400003 -60.493599
-52.667999 -8.6400003 -60.135399
-52.002998 -8.6400003 -59.633202
-51.338001 -8.6400003 -59.215599
-50.673 -8.6400003 -58.704399
-50.007999 -8.6400003 -57.970001
-49.342999 -8.6400003 -57.347198
-48.678001 -8.6400003 -56.2924
-48.013 -8.6400003 -55.745201
-47.348 -8.6400003 -55.361801
-46.682999 -8.6400003 -54.956799
-46.018002 -8.6400003 -54.389801
-45.353001 -8.6400003 -54.1432
-44.688 -8.6400003 -53.628399
-44.022999 -8.6400003 -53.122601
-43.358002 -8.6400003 -53.039799
-42.693001 -8.6400003 -52.6222
-42.028 -8.6400003 -52.424198
-41.362999 -8.6400003 -52.444
-40.698002 -8.6400003 -52.094799
-40.033001 -8.6400003 -60.455799
-39.368 -8.6400003 -60.455799
-38.702999 -8.6400003 -51.047199
-38.037998 -8.6400003 -58.090599
-37.373001 -8.6400003 -50.262402
-36.708 -8.6400003 -inf
-36.042999 -8.6400003 -inf
-35.377998 -8.6400003 -inf
-34.713001 -8.6400003 -48.998798
-34.048 -8.6400003 -49.195
-33.382999 -8.6400003 -49.000599
-32.717999 -8.6400003 -49.218399
-32.053001 -8.6400003 -49.202202
-31.388 -8.6400003 -49.128399
-30.723 -8.6400003 -47.319401
-30.058001 -8.6400003 -45.5662
-29.393 -8.6400003 -45.364601
-28.728001 -8.6400003 -45.465401
-28.063 -8.6400003 -45.184601
-27.398001 -8.6400003 -45.2062
-26.733 -8.6400003 -45.0658
-26.068001 -8.6400003 -44.902
-25.403 -8.6400003 -44.659
-24.738001 -8.6400003 -44.605
-24.073 -8.6400003 -44.705799
-23.408001 -8.6400003 -44.370998
-22.743 -8.6400003 -43.911999
-22.077999 -8.6400003 -43.957001
-21.413 -8.6400003 -44.237801
-20.747999 -8.6400003 -44.075802
-20.083 -8.6400003 -43.823799
-19.417999 -8.6400003 -43.6492
-18.753 -8.6400003 -43.474602
-18.087999 -8.6400003 -43.5592
-17.423 -8.6400003 -43.553799
-16.757999 -8.6400003 -43.487202
-16.093 -8.6400003 -43.472801
-15.428 -8.6400003 -43.1992
-14.763 -8.6400003 -42.927399
-14.098 -8.6400003 -42.769001
-13.433 -8.6400003 -42.693401
-12.768 -8.6400003 -42.583599
-12.103 -8.6400003 -42.493599
-11.438 -8.6400003 -42.119202
-10.773 -8.6400003 -42.092201
-10.108 -8.6400003 -41.941002
-9.4429998 -8.6400003 -41.863602
-8.7779999 -8.6400003 -41.6656
-8.1129999 -8.6400003 -41.5
-7.448 -8.6400003 -41.624199
-6.783 -8.6400003 -41.3326
-6.118 -8.6400003 -41.530602
-5.4530001 -8.6400003 -41.707001
-4.7880001 -8.6400003 -41.32
-4.1230001 -8.6400003 -41.336201
-3.4579999 -8.6400003 -41.105801
-2.793 -8.6400003 -41.167
-2.128 -8.6400003 -41.2066
-1.4630001 -8.6400003 -41.033798
-0.79799998 -8.6400003 -40.751202
-0.133 -8.6400003 -40.8484
0.53200001 -8.6400003 -40.754799
1.197 -8.6400003 -40.573002
1.862 -8.6400003 -40.317402
2.527 -8.6400003 -40.279598
3.1919999 -8.6400003 -40.1698
3.8570001 -8.6400003 -40.230999
4.5219998 -8.6400003 -40.074402
5.1869998 -8.6400003 -40.124802
5.8520002 -8.6400003 -40.040199
6.5170002 -8.6400003 -40.142799
7.1820002 -8.6400003 -39.554199
7.8470001 -8.6400003 -39.617199
8.5120001 -8.6400003 -39.547001
9.177 -8.6400003 -39.3778
9.842 -8.6400003 -39.233799
10.507 -8.6400003 -39.1222
11.172 -8.6400003 -38.805401
11.837 -8.6400003 -38.697399
12.502 -8.6400003 -38.701
13.167 -8.6400003 -38.771198
13.832 -8.6400003 -38.677601
14.497 -8.6400003 -38.400398
15.162 -8.6400003 -38.247398
15.827 -8.6400003 -38.2924
16.492001 -8.6400003 -38.080002
17.157 -8.6400003 -37.972
17.822001 -8.6400003 -37.890999
18.487 -8.6400003 -37.810001
19.152 -8.6400003 -37.674999
19.816999 -8.6400003 -37.5508
20.482 -8.6400003 -37.3582
21.146999 -8.6400003 -37.316799
21.812 -8.6400003 -37.372601
22.476999 -8.6400003 -37.106201
23.142 -8.6400003 -37.138599
23.806999 -8.6400003 -36.791199
24.472 -8.6400003 -36.627399
25.136999 -8.6400003 -36.791199
25.802 -8.6400003 -36.918999
26.466999 -8.6400003 -36.918999
27.132 -8.6400003 -36.801998
27.797001 -8.6400003 -36.382599
28.462 -8.6400003 -36.6688
29.127001 -8.6400003 -36.677799
29.792 -8.6400003 -36.618401
30.457001 -8.6400003 -36.490601
31.122 -8.6400003 -36.325001
31.787001 -8.6400003 -36.303398
32.452 -8.6400003 -36.208
33.117001 -8.6400003 -36.1684
33.782001 -8.6400003 -35.716599
34.446999 -8.6400003 -35.664398
35.112 -8.6400003 -35.666199
35.777 -8.6400003 -35.489799
36.442001 -8.6400003 -35.624802
37.106998 -8.6400003 -35.502399
37.771999 -8.6400003 -35.565399
38.437 -8.6400003 -35.597801
39.102001 -8.6400003 -35.342201
39.766998 -8.6400003 -35.473598
40.431999 -8.6400003 -35.651798
41.097 -8.6400003 -35.307999
41.762001 -8.6400003 -35.588799
42.426998 -8.6400003 -36.470798
43.091999 -8.6400003 -37.1674
43.757 -8.6400003 -38.135799
44.422001 -8.6400003 -38.715401
45.087002 -8.6400003 -39.809799
45.751999 -8.6400003 -40.672001
46.417 -8.6400003 -42.1408
47.082001 -8.6400003 -48.233799
47.747002 -8.6400003 -48.3652
48.411999 -8.6400003 -49.040199
49.077 -8.6400003 -49.920399
49.742001 -8.6400003 -51.030998
50.407001 -8.6400003 -51.972401
51.071999 -8.6400003 -57.321999
51.737 -8.6400003 -57.321999
52.402 -8.6400003 -57.566799
53.067001 -8.6400003 -57.916
53.731998 -8.6400003 -58.519001
54.396999 -8.6400003 -59.554001
55.062 -8.6400003 -60.174999
55.727001 -8.6400003 -60.3946
56.391998 -8.6400003 -60.9814
57.056999 -8.6400003 -61.976799
57.722 -8.6400003 -62.550999
58.387001 -8.6400003 -62.790401
59.051998 -8.6400003 -63.215199
59.716999 -8.6400003 -63.726398
60.382 -8.6400003 -64.3312
61.047001 -8.6400003 -65.517403
61.712002 -8.6400003 -66.356201
62.376999 -8.6400003 -67.419998
63.042 -8.6400003 -68.6008
63.707001 -8.6400003 -69.832001
64.372002 -8.6400003 -inf
65.037003 -8.6400003 -inf
65.702003 -8.6400003 -inf
66.366997 -8.6400003 -inf
67.031998 -8.6400003 -inf
67.696999 -8.6400003 -inf
68.362 -8.6400003 -inf
69.027 -8.6400003 -inf
69.692001 -8.6400003 -inf
70.357002 -8.6400003 -inf
71.022003 -8.6400003 -inf
71.686996 -8.6400003 -inf
72.351997 -8.6400003 -inf
73.016998 -8.6400003 -inf
73.681999 -8.6400003 -inf
74.347 -8.6400003 -inf
75.012001 -8.6400003 -inf
75.677002 -8.6400003 -inf
76.342003 -8.6400003 -inf
77.007004 -8.6400003 -inf
77.671997 -8.6400003 -inf
-63.973 -7.9200001 -inf
-63.307999 -7.9200001 -inf
-62.643002 -7.9200001 -inf
-61.978001 -7.9200001 -inf
-61.313 -7.9200001 -inf
-60.647999 -7.9200001 -inf
-59.983002 -7.9200001 -inf
-59.318001 -7.9200001 -63.4258
-58.653 -7.9200001 -62.399799
-57.987999 -7.9200001 -61.7626
-57.323002 -7.9200001 -61.231602
-56.658001 -7.9200001 -61.116402
-55.993 -7.9200001 -61.048
-55.327999 -7.9200001 -60.844601
-54.662998 -7.9200001 -61.028198
-53.998001 -7.9200001 -61.080399
-53.333 -7.9200001 -60.605202
-52.667999 -7.9200001 -59.8438
-52.002998 -7.9200001 -59.273201
-51.338001 -7.9200001 -59.0896
-50.673 -7.9200001 -58.623402
-50.007999 -7.9200001 -58.006001
-49.342999 -7.9200001 -57.321999
-48.678001 -7.9200001 -56.645199
-48.013 -7.9200001 -56.026001
-47.348 -7.9200001 -55.390598
-46.682999 -7.9200001 -54.765999
-46.018002 -7.9200001 -54.402401
-45.353001 -7.9200001 -53.711201
-44.688 -7.9200001 -53.819199
-44.022999 -7.9200001 -53.560001
-43.358002 -7.9200001 -53.2216
-42.693001 -7.9200001 -52.670799
-42.028 -7.9200001 -52.247799
-41.362999 -7.9200001 -52.3918
-40.698002 -7.9200001 -52.087601
-40.033001 -7.9200001 -60.455799
-39.368 -7.9200001 -51.7924
-38.702999 -7.9200001 -51.198399
-38.037998 -7.9200001 -50.579201
-37.373001 -7.9200001 -50.1796
-36.708 -7.9200001 -49.969002
-36.042999 -7.9200001 -49.895199
-35.377998 -7.9200001 -49.3876
-34.713001 -7.9200001 -49.123001
-34.048 -7.9200001 -48.705399
-33.382999 -7.9200001 -48.649601
-32.717999 -7.9200001 -48.356201
-32.053001 -7.9200001 -48.7108
-31.388 -7.9200001 -48.6586
-30.723 -7.9200001 -47.3284
-30.058001 -7.9200001 -46.441002
-29.393 -7.9200001 -45.638199
-28.728001 -7.9200001 -45.697601
-28.063 -7.9200001 -45.865002
-27.398001 -7.9200001 -46.278999
-26.733 -7.9200001 -45.204399
-26.068001 -7.9200001 -45.044201
-25.403 -7.9200001 -44.5312
-24.738001 -7.9200001 -44.394402
-24.073 -7.9200001 -44.2486
-23.408001 -7.9200001 -44.086601
-22.743 -7.9200001 -inf
-22.077999 -7.9200001 -inf
-21.413 -7.9200001 -44.131599
-20.747999 -7.9200001 -inf
-20.083 -7.9200001 -inf
-19.417999 -7.9200001 -inf
-18.753 -7.9200001 -43.6978
-18.087999 -7.9200001 -43.703201
-17.423 -7.9200001 -43.809399
-16.757999 -7.9200001 -43.823799
-16.093 -7.9200001 -44.059601
-15.428 -7.9200001 -43.512402
-14.763 -7.9200001 -43.247799
-14.098 -7.9200001 -43.042599
-13.433 -7.9200001 -42.6628
-12.768 -7.9200001 -42.759998
-12.103 -7.9200001 -42.750999
-11.438 -7.9200001 -42.754601
-10.773 -7.9200001 -42.385601
-10.108 -7.9200001 -42.0886
-9.4429998 -7.9200001 -42.230801
-8.7779999 -7.9200001 -42.171398
-8.1129999 -7.9200001 -41.912201
-7.448 -7.9200001 -41.757401
-6.783 -7.9200001 -41.633202
-6.118 -7.9200001 -41.68
-5.4530001 -7.9200001 -41.841999
-4.7880001 -7.9200001 -41.809601
-4.1230001 -7.9200001 -41.719601
-3.4579999 -7.9200001 -41.301998
-2.793 -7.9200001 -41.350601
-2.128 -7.9200001 -41.451401
-1.4630001 -7.9200001 -41.215599
-0.79799998 -7.9200001 -41.1436
-0.133 -7.9200001 -41.107601
0.53200001 -7.9200001 -43.411598
1.197 -7.9200001 -40.889801
1.862 -7.9200001 -40.677399
2.527 -7.9200001 -40.560398
3.1919999 -7.9200001 -40.373199
3.8570001 -7.9200001 -40.292198
4.5219998 -7.9200001 -40.266998
5.1869998 -7.9200001 -40.211201
5.8520002 -7.9200001 -40.378601
6.5170002 -7.9200001 -40.292198
7.1820002 -7.9200001 -39.853001
7.8470001 -7.9200001 -39.750401
8.5120001 -7.9200001 -39.736
9.177 -7.9200001 -39.575802
9.842 -7.9200001 -39.7108
10.507 -7.9200001 -39.370602
11.172 -7.9200001 -38.976398
11.837 -7.9200001 -38.693802
12.502 -7.9200001 -38.774799
13.167 -7.9200001 -38.6884
13.832 -7.9200001 -38.6992
14.497 -7.9200001 -38.429199
15.162 -7.9200001 -38.3554
15.827 -7.9200001 -38.281601
16.492001 -7.9200001 -38.337399
17.157 -7.9200001 -38.119598
17.822001 -7.9200001 -38.067402
18.487 -7.9200001 -37.936001
19.152 -7.9200001 -37.979198
19.816999 -7.9200001 -37.917999
20.482 -7.9200001 -37.5994
21.146999 -7.9200001 -37.540001
21.812 -7.9200001 -37.401402
22.476999 -7.9200001 -37.2556
23.142 -7.9200001 -37.138599
23.806999 -7.9200001 -36.913601
24.472 -7.9200001 -36.888401
25.136999 -7.9200001 -36.690399
25.802 -7.9200001 -36.953201
26.466999 -7.9200001 -36.918999
27.132 -7.9200001 -36.634602
27.797001 -7.9200001 -36.866798
28.462 -7.9200001 -36.942402
29.127001 -7.9200001 -37.0126
29.792 -7.9200001 -36.874001
30.457001 -7.9200001 -36.765999
31.122 -7.9200001 -36.816399
31.787001 -7.9200001 -36.823601
32.452 -7.9200001 -36.580601
33.117001 -7.9200001 -36.0658
33.782001 -7.9200001 -36.3088
34.446999 -7.9200001 -35.968601
35.112 -7.9200001 -35.793999
35.777 -7.9200001 -35.871399
36.442001 -7.9200001 -36.152199
37.106998 -7.9200001 -36.252998
37.771999 -7.9200001 -35.7976
38.437 -7.9200001 -35.520401
39.102001 -7.9200001 -35.5168
39.766998 -7.9200001 -35.4664
40.431999 -7.9200001 -35.460999
41.097 -7.9200001 -35.410599
41.762001 -7.9200001 -36.073002
42.426998 -7.9200001 -36.505001
43.091999 -7.9200001 -37.752399
43.757 -7.9200001 -38.548
44.422001 -7.9200001 -38.643398
45.087002 -7.9200001 -39.923199
45.751999 -7.9200001 -40.459599
46.417 -7.9200001 -41.919399
47.082001 -7.9200001 -48.203201
47.747002 -7.9200001 -48.230202
48.411999 -7.9200001 -48.853001
49.077 -7.9200001 -49.619801
49.742001 -7.9200001 -50.388401
50.407001 -7.9200001 -51.166
51.071999 -7.9200001 -inf
51.737 -7.9200001 -inf
52.402 -7.9200001 -inf
53.067001 -7.9200001 -57.361599
53.731998 -7.9200001 -57.8368
54.396999 -7.9200001 -59.111198
55.062 -7.9200001 -59.546799
55.727001 -7.9200001 -60.043598
56.391998 -7.9200001 -60.4576
57.056999 -7.9200001 -61.447601
57.722 -7.9200001 -62.072201
58.387001 -7.9200001 -62.4538
59.051998 -7.9200001 -62.992001
59.716999 -7.9200001 -63.5518
60.382 -7.9200001 -64.165604
61.047001 -7.9200001 -65.159203
61.712002 -7.9200001 -65.927803
62.376999 -7.9200001 -66.9412
63.042 -7.9200001 -68.019402
63.707001 -7.9200001 -69.673599
64.372002 -7.9200001 -inf
65.037003 -7.9200001 -inf
65.702003 -7.9200001 -inf
66.366997 -7.9200001 -inf
67.031998 -7.9200001 -inf
67.696999 -7.9200001 -inf
68.362 -7.9200001 -inf
69.027 -7.9200001 -inf
69.692001 -7.9200001 -inf
70.357002 -7.9200001 -inf
71.022003 -7.9200001 -inf
71.686996 -7.9200001 -inf
72.351997 -7.9200001 -inf
73.016998 -7.9200001 -inf
73.681999 -7.9200001 -inf
74.347 -7.9200001 -inf
75.012001 -7.9200001 -inf
75.677002 -7.9200001 -inf
76.342003 -7.9200001 -inf
77.007004 -7.9200001 -inf
77.671997 -7.9200001 -inf
-63.973 -7.1999998 -inf
-63.307999 -7.1999998 -inf
-62.643002 -7.1999998 -inf
-61.978001 -7.1999998 -inf
-61.313 -7.1999998 -inf
-60.647999 -7.1999998 -inf
-59.983002 -7.1999998 -inf
-59.318001 -7.1999998 -62.883999
-58.653 -7.1999998 -62.365601
-57.987999 -7.1999998 -61.926399
-57.323002 -7.1999998 -61.550201
-56.658001 -7.1999998 -61.231602
-55.993 -7.1999998 -61.021
-55.327999 -7.1999998 -60.570999
-54.662998 -7.1999998 -60.686199
-53.998001 -7.1999998 -60.6502
-53.333 -7.1999998 -60.337002
-52.667999 -7.1999998 -59.834801
-52.002998 -7.1999998 -59.194
-51.338001 -7.1999998 -58.812401
-50.673 -7.1999998 -58.547798
-50.007999 -7.1999998 -58.270599
-49.342999 -7.1999998 -57.525398
-48.678001 -7.1999998 -56.799999
-48.013 -7.1999998 -56.234798
-47.348 -7.1999998 -55.658798
-46.682999 -7.1999998 -55.034199
-46.018002 -7.1999998 -54.519402
-45.353001 -7.1999998 -54.076599
-44.688 -7.1999998 -53.803001
-44.022999 -7.1999998 -53.444801
-43.358002 -7.1999998 -53.232399
-42.693001 -7.1999998 -52.4548
-42.028 -7.1999998 -52.138
-41.362999 -7.1999998 -52.201
-40.698002 -7.1999998 -51.938202
-40.033001 -7.1999998 -51.383801
-39.368 -7.1999998 -51.3568
-38.702999 -7.1999998 -51.034599
-38.037998 -7.1999998 -50.879799
-37.373001 -7.1999998 -50.507198
-36.708 -7.1999998 -50.030201
-36.042999 -7.1999998 -49.857399
-35.377998 -7.1999998 -49.551399
-34.713001 -7.1999998 -49.142799
-34.048 -7.1999998 -48.854801
-33.382999 -7.1999998 -48.550598
-32.717999 -7.1999998 -48.395802
-32.053001 -7.1999998 -48.537998
-31.388 -7.1999998 -48.219398
-30.723 -7.1999998 -47.612801
-30.058001 -7.1999998 -46.6768
-29.393 -7.1999998 -46.363602
-28.728001 -7.1999998 -46.469799
-28.063 -7.1999998 -46.543598
-27.398001 -7.1999998 -46.278999
-26.733 -7.1999998 -45.753399
-26.068001 -7.1999998 -45.620201
-25.403 -7.1999998 -45.004601
-24.738001 -7.1999998 -44.527599
-24.073 -7.1999998 -44.345798
-23.408001 -7.1999998 -44.3386
-22.743 -7.1999998 -44.533001
-22.077999 -7.1999998 -44.5816
-21.413 -7.1999998 -44.0452
-20.747999 -7.1999998 -44.266602
-20.083 -7.1999998 -44.153198
-19.417999 -7.1999998 -44.016399
-18.753 -7.1999998 -43.926399
-18.087999 -7.1999998 -44.291801
-17.423 -7.1999998 -44.169399
-16.757999 -7.1999998 -44.007401
-16.093 -7.1999998 -44.0326
-15.428 -7.1999998 -43.723
-14.763 -7.1999998 -43.744598
-14.098 -7.1999998 -43.242401
-13.433 -7.1999998 -43.039001
-12.768 -7.1999998 -42.966999
-12.103 -7.1999998 -42.9328
-11.438 -7.1999998 -42.876999
-10.773 -7.1999998 -42.698799
-10.108 -7.1999998 -42.5746
-9.4429998 -7.1999998 -42.589001
-8.7779999 -7.1999998 -42.502602
-8.1129999 -7.1999998 -42.400002
-7.448 -7.1999998 -41.987801
-6.783 -7.1999998 -41.9842
-6.118 -7.1999998 -41.9608
-5.4530001 -7.1999998 -41.978802
-4.7880001 -7.1999998 -41.975201
-4.1230001 -7.1999998 -42.0868
-3.4579999 -7.1999998 -41.816799
-2.793 -7.1999998 -41.622398
-2.128 -7.1999998 -41.707001
-1.4630001 -7.1999998 -41.554001
-0.79799998 -7.1999998 -41.426201
-0.133 -7.1999998 -41.3992
0.53200001 -7.1999998 -41.305599
1.197 -7.1999998 -41.095001
1.862 -7.1999998 -40.942001
2.527 -7.1999998 -40.893398
3.1919999 -7.1999998 -40.924
3.8570001 -7.1999998 -40.828602
4.5219998 -7.1999998 -40.722401
5.1869998 -7.1999998 -40.582001
5.8520002 -7.1999998 -40.634201
6.5170002 -7.1999998 -40.421799
7.1820002 -7.1999998 -40.072601
7.8470001 -7.1999998 -39.962799
8.5120001 -7.1999998 -39.930401
9.177 -7.1999998 -39.730598
9.842 -7.1999998 -39.779202
10.507 -7.1999998 -39.651402
11.172 -7.1999998 -39.457001
11.837 -7.1999998 -39.2626
12.502 -7.1999998 -39.041199
13.167 -7.1999998 -38.972801
13.832 -7.1999998 -38.8288
14.497 -7.1999998 -38.938599
15.162 -7.1999998 -39.163601
15.827 -7.1999998 -38.971001
16.492001 -7.1999998 -38.753201
17.157 -7.1999998 -38.4706
17.822001 -7.1999998 -38.414799
18.487 -7.1999998 -38.321201
19.152 -7.1999998 -38.3932
19.816999 -7.1999998 -38.254601
20.482 -7.1999998 -37.977402
21.146999 -7.1999998 -37.8442
21.812 -7.1999998 -37.710999
22.476999 -7.1999998 -37.720001
23.142 -7.1999998 -37.4356
23.806999 -7.1999998 -37.3582
24.472 -7.1999998 -37.341999
25.136999 -7.1999998 -37.226799
25.802 -7.1999998 -37.1656
26.466999 -7.1999998 -36.9856
27.132 -7.1999998 -36.843399
27.797001 -7.1999998 -37.007198
28.462 -7.1999998 -36.945999
29.127001 -7.1999998 -36.811001
29.792 -7.1999998 -36.7048
30.457001 -7.1999998 -36.7696
31.122 -7.1999998 -36.996399
31.787001 -7.1999998 -36.8866
32.452 -7.1999998 -36.596802
33.117001 -7.1999998 -36.0928
33.782001 -7.1999998 -35.966801
34.446999 -7.1999998 -36.098202
35.112 -7.1999998 -36.006401
35.777 -7.1999998 -36.4618
36.442001 -7.1999998 -36.535599
37.106998 -7.1999998 -36.4744
37.771999 -7.1999998 -35.828201
38.437 -7.1999998 -35.878601
39.102001 -7.1999998 -35.713001
39.766998 -7.1999998 -35.5816
40.431999 -7.1999998 -35.4286
41.097 -7.1999998 -35.417801
41.762001 -7.1999998 -35.903801
42.426998 -7.1999998 -36.456402
43.091999 -7.1999998 -37.673199
43.757 -7.1999998 -38.422001
44.422001 -7.1999998 -38.607399
45.087002 -7.1999998 -39.399399
45.751999 -7.1999998 -40.279598
46.417 -7.1999998 -41.544998
47.082001 -7.1999998 -48.127602
47.747002 -7.1999998 -48.179798
48.411999 -7.1999998 -48.575802
49.077 -7.1999998 -49.200401
49.742001 -7.1999998 -49.8466
50.407001 -7.1999998 -50.510799
51.071999 -7.1999998 -51.257801
51.737 -7.1999998 -54.1684
52.402 -7.1999998 -54.1684
53.067001 -7.1999998 -58.202202
53.731998 -7.1999998 -58.135601
54.396999 -7.1999998 -58.681
55.062 -7.1999998 -58.904202
55.727001 -7.1999998 -59.338001
56.391998 -7.1999998 -60.097599
57.056999 -7.1999998 -60.812199
57.722 -7.1999998 -60.826599
58.387001 -7.1999998 -62.077599
59.051998 -7.1999998 -62.702202
59.716999 -7.1999998 -63.467201
60.382 -7.1999998 -64.138603
61.047001 -7.1999998 -64.939598
61.712002 -7.1999998 -65.445396
62.376999 -7.1999998 -66.903397
63.042 -7.1999998 -67.925797
63.707001 -7.1999998 -69.236198
64.372002 -7.1999998 -inf
65.037003 -7.1999998 -inf
65.702003 -7.1999998 -inf
66.366997 -7.1999998 -inf
67.031998 -7.1999998 -inf
67.696999 -7.1999998 -inf
68.362 -7.1999998 -inf
69.027 -7.1999998 -inf
69.692001 -7.1999998 -inf
70.357002 -7.1999998 -inf
71.022003 -7.1999998 -inf
71.686996 -7.1999998 -inf
72.351997 -7.1999998 -inf
73.016998 -7.1999998 -inf
73.681999 -7.1999998 -inf
74.347 -7.1999998 -inf
75.012001 -7.1999998 -inf
75.677002 -7.1999998 -inf
76.342003 -7.1999998 -inf
77.007004 -7.1999998 -inf
77.671997 -7.1999998 -inf
-63.973 -6.48 -inf
-63.307999 -6.48 -inf
-62.643002 -6.48 -inf
-61.978001 -6.48 -inf
-61.313 -6.48 -inf
-60.647999 -6.48 -inf
-59.983002 -6.48 -inf
-59.318001 -6.48 -62.626598
-58.653 -6.48 -62.178398
-57.987999 -6.48 -61.836399
-57.323002 -6.48 -61.577202
-56.658001 -6.48 -61.510601
-55.993 -6.48 -61.215401
-55.327999 -6.48 -60.759998
-54.662998 -6.48 -60.445
-53.998001 -6.48 -60.414398
-53.333 -6.48 -60.196602
-52.667999 -6.48 -59.696201
-52.002998 -6.48 -59.521599
-51.338001 -6.48 -59.104
-50.673 -6.48 -58.587399
-50.007999 -6.48 -58.222
-49.342999 -6.48 -57.662201
-48.678001 -6.48 -57.066399
-48.013 -6.48 -56.607399
-47.348 -6.48 -56.101601
-46.682999 -6.48 -55.2808
-46.018002 -6.48 -54.814602
-45.353001 -6.48 -54.2854
-44.688 -6.48 -53.873199
-44.022999 -6.48 -53.4646
-43.358002 -6.48 -53.138802
-42.693001 -6.48 -52.921001
-42.028 -6.48 -52.209999
-41.362999 -6.48 -52.166801
-40.698002 -6.48 -51.533199
-40.033001 -6.48 -51.3064
-39.368 -6.48 -50.7286
-38.702999 -6.48 -50.879799
-38.037998 -6.48 -51.005798
-37.373001 -6.48 -50.555801
-36.708 -6.48 -50.109402
-36.042999 -6.48 -49.742199
-35.377998 -6.48 -49.583801
-34.713001 -6.48 -49.254398
-34.048 -6.48 -48.933998
-33.382999 -6.48 -48.744999
-32.717999 -6.48 -48.712601
-32.053001 -6.48 -48.421001
-31.388 -6.48 -48.010601
-30.723 -6.48 -47.922401
-30.058001 -6.48 -47.5966
-29.393 -6.48 -47.4832
-28.728001 -6.48 -47.1754
-28.063 -6.48 -47.148399
-27.398001 -6.48 -46.790199
-26.733 -6.48 -46.284401
-26.068001 -6.48 -46.021599
-25.403 -6.48 -45.765999
-24.738001 -6.48 -45.416801
-24.073 -6.48 -45.303398
-23.408001 -6.48 -45.279999
-22.743 -6.48 -45.249401
-22.077999 -6.48 -44.995602
-21.413 -6.48 -44.909199
-20.747999 -6.48 -44.8228
-20.083 -6.48 -44.3116
-19.417999 -6.48 -44.111801
-18.753 -6.48 -44.091999
-18.087999 -6.48 -44.297199
-17.423 -6.48 -44.1586
-16.757999 -6.48 -44.088402
-16.093 -6.48 -44.003799
-15.428 -6.48 -43.768002
-14.763 -6.48 -43.911999
-14.098 -6.48 -43.715801
-13.433 -6.48 -43.487202
-12.768 -6.48 -43.492599
-12.103 -6.48 -43.319801
-11.438 -6.48 -43.190201
-10.773 -6.48 -43.053398
-10.108 -6.48 -42.947201
-9.4429998 -6.48 -42.9202
-8.7779999 -6.48 -42.716801
-8.1129999 -6.48 -42.488201
-7.448 -6.48 -42.383801
-6.783 -6.48 -42.1408
-6.118 -6.48 -42.173199
-5.4530001 -6.48 -41.996799
-4.7880001 -6.48 -42.171398
-4.1230001 -6.48 -42.1264
-3.4579999 -6.48 -42.000401
-2.793 -6.48 -41.991402
-2.128 -6.48 -41.759201
-1.4630001 -6.48 -41.849201
-0.79799998 -6.48 -41.824001
-0.133 -6.48 -41.584599
0.53200001 -6.48 -41.534199
1.197 -6.48 -41.366798
1.862 -6.48 -41.249802
2.527 -6.48 -41.264198
3.1919999 -6.48 -41.476601
3.8570001 -6.48 -41.199402
4.5219998 -6.48 -40.9618
5.1869998 -6.48 -40.869999
5.8520002 -6.48 -40.763802
6.5170002 -6.48 -40.648602
7.1820002 -6.48 -40.522598
7.8470001 -6.48 -40.3102
8.5120001 -6.48 -40.3354
9.177 -6.48 -40.150002
9.842 -6.48 -40.130199
10.507 -6.48 -39.9142
11.172 -6.48 -39.9016
11.837 -6.48 -39.433601
12.502 -6.48 -39.424599
13.167 -6.48 -39.525398
13.832 -6.48 -39.458801
14.497 -6.48 -39.394001
15.162 -6.48 -39.239201
15.827 -6.48 -39.251801
16.492001 -6.48 -38.985401
17.157 -6.48 -38.8288
17.822001 -6.48 -38.7514
18.487 -6.48 -38.643398
19.152 -6.48 -38.5336
19.816999 -6.48 -38.512001
20.482 -6.48 -38.362598
21.146999 -6.48 -38.2024
21.812 -6.48 -38.117802
22.476999 -6.48 -38.144798
23.142 -6.48 -37.9342
23.806999 -6.48 -37.723598
24.472 -6.48 -38.065601
25.136999 -6.48 -37.521999
25.802 -6.48 -37.770401
26.466999 -6.48 -37.419399
27.132 -6.48 -37.098999
27.797001 -6.48 -37.125999
28.462 -6.48 -36.850601
29.127001 -6.48 -36.9496
29.792 -6.48 -36.9748
30.457001 -6.48 -36.854198
31.122 -6.48 -36.861401
31.787001 -6.48 -36.991001
32.452 -6.48 -37.0378
33.117001 -6.48 -36.7174
33.782001 -6.48 -36.4888
34.446999 -6.48 -36.342999
35.112 -6.48 -36.512199
35.777 -6.48 -36.5914
36.442001 -6.48 -36.753399
37.106998 -6.48 -36.569801
37.771999 -6.48 -36.292599
38.437 -6.48 -36.292599
39.102001 -6.48 -36.085602
39.766998 -6.48 -36.263802
40.431999 -6.48 -35.659
41.097 -6.48 -35.851601
41.762001 -6.48 -36.062199
42.426998 -6.48 -36.746201
43.091999 -6.48 -37.7146
43.757 -6.48 -38.339199
44.422001 -6.48 -38.715401
45.087002 -6.48 -39.309399
45.751999 -6.48 -40.2328
46.417 -6.48 -41.202999
47.082001 -6.48 -48.408401
47.747002 -6.48 -48.408401
48.411999 -6.48 -48.435398
49.077 -6.48 -48.959202
49.742001 -6.48 -49.500999
50.407001 -6.48 -50.005001
51.071999 -6.48 -50.687199
51.737 -6.48 -51.652
52.402 -6.48 -53.041599
53.067001 -6.48 -54.175598
53.731998 -6.48 -56.459801
54.396999 -6.48 -57.831402
55.062 -6.48 -57.757599
55.727001 -6.48 -58.625198
56.391998 -6.48 -59.316399
57.056999 -6.48 -59.701599
57.722 -6.48 -59.975201
58.387001 -6.48 -61.307201
59.051998 -6.48 -62.419601
59.716999 -6.48 -63.132401
60.382 -6.48 -63.7696
61.047001 -6.48 -64.502197
61.712002 -6.48 -65.243797
62.376999 -6.48 -66.525398
63.042 -6.48 -67.673798
63.707001 -6.48 -68.870796
64.372002 -6.48 -inf
65.037003 -6.48 -inf
65.702003 -6.48 -inf
66.366997 -6.48 -inf
67.031998 -6.48 -inf
67.696999 -6.48 -inf
68.362 -6.48 -inf
69.027 -6.48 -inf
69.692001 -6.48 -inf
70.357002 -6.48 -inf
71.022003 -6.48 -inf
71.686996 -6.48 -inf
72.351997 -6.48 -inf
73.016998 -6.48 -inf
73.681999 -6.48 -inf
74.347 -6.48 -inf
75.012001 -6.48 -inf
75.677002 -6.48 -inf
76.342003 -6.48 -inf
77.007004 -6.48 -inf
77.671997 -6.48 -inf
-63.973 -5.7600002 -inf
-63.307999 -5.7600002 -inf
-62.643002 -5.7600002 -inf
-61.978001 -5.7600002 -inf
-61.313 -5.7600002 -inf
-60.647999 -5.7600002 -inf
-59.983002 -5.7600002 -63.252998
-59.318001 -5.7600002 -62.6194
-58.653 -5.7600002 -61.9552
-57.987999 -5.7600002 -61.706799
-57.323002 -5.7600002 -61.548401
-56.658001 -5.7600002 -61.2262
-55.993 -5.7600002 -61.040798
-55.327999 -5.7600002 -60.833801
-54.662998 -5.7600002 -60.682598
-53.998001 -5.7600002 -60.526001
-53.333 -5.7600002 -60.363998
-52.667999 -5.7600002 -60.029202
-52.002998 -5.7600002 -59.4118
-51.338001 -5.7600002 -58.805199
-50.673 -5.7600002 -58.448799
-50.007999 -5.7600002 -58.097801
-49.342999 -5.7600002 -57.818802
-48.678001 -5.7600002 -57.2356
-48.013 -5.7600002 -56.634399
-47.348 -5.7600002 -56.1376
-46.682999 -5.7600002 -55.455399
-46.018002 -5.7600002 -54.760601
-45.353001 -5.7600002 -54.298
-44.688 -5.7600002 -53.819199
-44.022999 -5.7600002 -53.5042
-43.358002 -5.7600002 -53.012798
-42.693001 -5.7600002 -53.072201
-42.028 -5.7600002 -52.4944
-41.362999 -5.7600002 -52.026402
-40.698002 -5.7600002 -51.543999
-40.033001 -5.7600002 -51.351398
-39.368 -5.7600002 -50.957199
-38.702999 -5.7600002 -51.029202
-38.037998 -5.7600002 -50.966202
-37.373001 -5.7600002 -50.739399
-36.708 -5.7600002 -50.0392
-36.042999 -5.7600002 -49.524399
-35.377998 -5.7600002 -49.279598
-34.713001 -5.7600002 -48.822399
-34.048 -5.7600002 -49.002399
-33.382999 -5.7600002 -49.1446
-32.717999 -5.7600002 -48.624401
-32.053001 -5.7600002 -48.3022
-31.388 -5.7600002 -48.2122
-30.723 -5.7600002 -47.952999
-30.058001 -5.7600002 -47.7784
-29.393 -5.7600002 -47.578602
-28.728001 -5.7600002 -47.386002
-28.063 -5.7600002 -47.335602
-27.398001 -5.7600002 -47.186199
-26.733 -5.7600002 -46.725399
-26.068001 -5.7600002 -46.2952
-25.403 -5.7600002 -46.016201
-24.738001 -5.7600002 -45.881199
-24.073 -5.7600002 -45.778599
-23.408001 -5.7600002 -45.938801
-22.743 -5.7600002 -45.751598
-22.077999 -5.7600002 -45.416801
-21.413 -5.7600002 -45.301601
-20.747999 -5.7600002 -45.319599
-20.083 -5.7600002 -45.229599
-19.417999 -5.7600002 -44.999199
-18.753 -5.7600002 -44.756199
-18.087999 -5.7600002 -44.624802
-17.423 -5.7600002 -44.6068
-16.757999 -5.7600002 -44.560001
-16.093 -5.7600002 -44.290001
-15.428 -5.7600002 -44.2108
-14.763 -5.7600002 -44.077599
-14.098 -5.7600002 -44.0686
-13.433 -5.7600002 -43.872398
-12.768 -5.7600002 -43.780602
-12.103 -5.7600002 -43.652802
-11.438 -5.7600002 -43.588001
-10.773 -5.7600002 -43.427799
-10.108 -5.7600002 -43.269402
-9.4429998 -5.7600002 -43.155998
-8.7779999 -5.7600002 -42.9058
-8.1129999 -5.7600002 -42.8032
-7.448 -5.7600002 -42.756401
-6.783 -5.7600002 -42.754601
-6.118 -5.7600002 -42.551201
-5.4530001 -5.7600002 -42.3694
-4.7880001 -5.7600002 -42.4828
-4.1230001 -5.7600002 -42.324402
-3.4579999 -5.7600002 -42.2272
-2.793 -5.7600002 -42.5098
-2.128 -5.7600002 -42.3298
-1.4630001 -5.7600002 -42.378399
-0.79799998 -5.7600002 -42.299198
-0.133 -5.7600002 -41.904999
0.53200001 -5.7600002 -41.861801
1.197 -5.7600002 -41.800598
1.862 -5.7600002 -41.402802
2.527 -5.7600002 -41.476601
3.1919999 -5.7600002 -41.561199
3.8570001 -5.7600002 -41.518002
4.5219998 -5.7600002 -41.314602
5.1869998 -5.7600002 -41.291199
5.8520002 -5.7600002 -40.952801
6.5170002 -5.7600002 -40.754799
7.1820002 -5.7600002 -40.7962
7.8470001 -5.7600002 -40.562199
8.5120001 -5.7600002 -40.677399
9.177 -5.7600002 -40.385799
9.842 -5.7600002 -40.328201
10.507 -5.7600002 -40.279598
11.172 -5.7600002 -40.306599
11.837 -5.7600002 -40.288601
12.502 -5.7600002 -39.982601
13.167 -5.7600002 -39.809799
13.832 -5.7600002 -39.653198
14.497 -5.7600002 -39.509201
15.162 -5.7600002 -39.293201
15.827 -5.7600002 -39.221199
16.492001 -5.7600002 -39.242802
17.157 -5.7600002 -39.1618
17.822001 -5.7600002 -39.1492
18.487 -5.7600002 -38.9422
19.152 -5.7600002 -38.886398
19.816999 -5.7600002 -38.722599
20.482 -5.7600002 -38.6092
21.146999 -5.7600002 -38.4706
21.812 -5.7600002 -38.242001
22.476999 -5.7600002 -38.4958
23.142 -5.7600002 -38.4184
23.806999 -5.7600002 -38.233002
24.472 -5.7600002 -38.375198
25.136999 -5.7600002 -38.051201
25.802 -5.7600002 -38.1124
26.466999 -5.7600002 -37.775799
27.132 -5.7600002 -37.853199
27.797001 -5.7600002 -37.309601
28.462 -5.7600002 -36.976601
29.127001 -5.7600002 -36.9244
29.792 -5.7600002 -36.8866
30.457001 -5.7600002 -37.104401
31.122 -5.7600002 -37.1404
31.787001 -5.7600002 -37.082802
32.452 -5.7600002 -37.1656
33.117001 -5.7600002 -36.839802
33.782001 -5.7600002 -36.850601
34.446999 -5.7600002 -36.904598
35.112 -5.7600002 -37.019798
35.777 -5.7600002 -37.1782
36.442001 -5.7600002 -36.956799
37.106998 -5.7600002 -36.738998
37.771999 -5.7600002 -36.784
38.437 -5.7600002 -36.852402
39.102001 -5.7600002 -36.506802
39.766998 -5.7600002 -36.746201
40.431999 -5.7600002 -36.357399
41.097 -5.7600002 -36.555401
41.762001 -5.7600002 -36.614799
42.426998 -5.7600002 -37.224998
43.091999 -5.7600002 -37.752399
43.757 -5.7600002 -38.159199
44.422001 -5.7600002 -38.808998
45.087002 -5.7600002 -39.305801
45.751999 -5.7600002 -40.088799
46.417 -5.7600002 -40.826801
47.082001 -5.7600002 -47.638
47.747002 -5.7600002 -47.638
48.411999 -5.7600002 -47.719002
49.077 -5.7600002 -48.577599
49.742001 -5.7600002 -49.074402
50.407001 -5.7600002 -49.531601
51.071999 -5.7600002 -50.258801
51.737 -5.7600002 -51.142601
52.402 -5.7600002 -52.373798
53.067001 -5.7600002 -53.362
53.731998 -5.7600002 -54.299801
54.396999 -5.7600002 -55.221401
55.062 -5.7600002 -57.304001
55.727001 -5.7600002 -57.9286
56.391998 -5.7600002 -58.150002
57.056999 -5.7600002 -58.470402
57.722 -5.7600002 -59.249802
58.387001 -5.7600002 -59.741199
59.051998 -5.7600002 -61.553799
59.716999 -5.7600002 -62.5942
60.382 -5.7600002 -63.056801
61.047001 -5.7600002 -64.268204
61.712002 -5.7600002 -64.979202
62.376999 -5.7600002 -66.242798
63.042 -5.7600002 -67.4776
63.707001 -5.7600002 -68.769997
64.372002 -5.7600002 -inf
65.037003 -5.7600002 -inf
65.702003 -5.7600002 -inf
66.366997 -5.7600002 -inf
67.031998 -5.7600002 -inf
67.696999 -5.7600002 -inf
68.362 -5.7600002 -inf
69.027 -5.7600002 -inf
69.692001 -5.7600002 -inf
70.357002 -5.7600002 -inf
71.022003 -5.7600002 -inf
71.686996 -5.7600002 -inf
72.351997 -5.7600002 -inf
73.016998 -5.7600002 -inf
73.681999 -5.7600002 -inf
74.347 -5.7600002 -inf
75.012001 -5.7600002 -inf
75.677002 -5.7600002 -inf
76.342003 -5.7600002 -inf
77.007004 -5.7600002 -inf
77.671997 -5.7600002 -inf
-63.973 -5.04 -inf
-63.307999 -5.04 -inf
-62.643002 -5.04 -inf
-61.978001 -5.04 -inf
-61.313 -5.04 -inf
-60.647999 -5.04 -inf
-59.983002 -5.04 -62.855202
-59.318001 -5.04 -62.659
-58.653 -5.04 -61.960602
-57.987999 -5.04 -61.714001
-57.323002 -5.04 -61.777
-56.658001 -5.04 -61.274799
-55.993 -5.04 -61.062401
-55.327999 -5.04 -60.707802
-54.662998 -5.04 -60.569199
-53.998001 -5.04 -60.499001
-53.333 -5.04 -60.392799
-52.667999 -5.04 -60.077801
-52.002998 -5.04 -59.743
-51.338001 -5.04 -58.907799
-50.673 -5.04 -58.371399
-50.007999 -5.04 -58.087002
-49.342999 -5.04 -57.6334
-48.678001 -5.04 -57.0322
-48.013 -5.04 -56.544399
-47.348 -5.04 -56.033199
-46.682999 -5.04 -55.504002
-46.018002 -5.04 -55.023399
-45.353001 -5.04 -54.530201
-44.688 -5.04 -54.083801
-44.022999 -5.04 -53.741798
-43.358002 -5.04 -53.4394
-42.693001 -5.04 -53.023602
-42.028 -5.04 -52.476398
-41.362999 -5.04 -52.102001
-40.698002 -5.04 -51.589001
-40.033001 -5.04 -51.633999
-39.368 -5.04 -51.157001
-38.702999 -5.04 -51.198399
-38.037998 -5.04 -50.953602
-37.373001 -5.04 -50.5
-36.708 -5.04 -50.044601
-36.042999 -5.04 -49.700802
-35.377998 -5.04 -49.151798
-34.713001 -5.04 -48.8008
-34.048 -5.04 -49.301201
-33.382999 -5.04 -48.9268
-32.717999 -5.04 -48.844002
-32.053001 -5.04 -48.656799
-31.388 -5.04 -47.812599
-30.723 -5.04 -47.825199
-30.058001 -5.04 -47.344601
-29.393 -5.04 -47.5732
-28.728001 -5.04 -47.706402
-28.063 -5.04 -47.679401
-27.398001 -5.04 -47.357201
-26.733 -5.04 -47.1124
-26.068001 -5.04 -46.630001
-25.403 -5.04 -46.4986
-24.738001 -5.04 -46.210602
-24.073 -5.04 -46.034199
-23.408001 -5.04 -46.007198
-22.743 -5.04 -45.933399
-22.077999 -5.04 -45.647202
-21.413 -5.04 -45.546398
-20.747999 -5.04 -45.4744
-20.083 -5.04 -45.306999
-19.417999 -5.04 -45.175598
-18.753 -5.04 -45.1036
-18.087999 -5.04 -44.9632
-17.423 -5.04 -44.871399
-16.757999 -5.04 -44.752602
-16.093 -5.04 -44.545601
-15.428 -5.04 -44.542
-14.763 -5.04 -44.3638
-14.098 -5.04 -44.3638
-13.433 -5.04 -44.342201
-12.768 -5.04 -44.1964
-12.103 -5.04 -44.0704
-11.438 -5.04 -44.0326
-10.773 -5.04 -44.014599
-10.108 -5.04 -43.629398
-9.4429998 -5.04 -43.501598
-8.7779999 -5.04 -43.318001
-8.1129999 -5.04 -43.296398
-7.448 -5.04 -43.067799
-6.783 -5.04 -42.8428
-6.118 -5.04 -42.939999
-5.4530001 -5.04 -42.860802
-4.7880001 -5.04 -42.696999
-4.1230001 -5.04 -42.646599
-3.4579999 -5.04 -42.551201
-2.793 -5.04 -42.6106
-2.128 -5.04 -42.437801
-1.4630001 -5.04 -42.486401
-0.79799998 -5.04 -42.4198
-0.133 -5.04 -42.338799
0.53200001 -5.04 -41.993198
1.197 -5.04 -42.162399
1.862 -5.04 -41.633202
2.527 -5.04 -41.8456
3.1919999 -5.04 -41.663799
3.8570001 -5.04 -41.554001
4.5219998 -5.04 -41.541401
5.1869998 -5.04 -41.544998
5.8520002 -5.04 -41.255199
6.5170002 -5.04 -41.23
7.1820002 -5.04 -41.060799
7.8470001 -5.04 -40.8862
8.5120001 -5.04 -40.8736
9.177 -5.04 -40.798
9.842 -5.04 -40.522598
10.507 -5.04 -40.673801
11.172 -5.04 -40.6702
11.837 -5.04 -40.582001
12.502 -5.04 -40.303001
13.167 -5.04 -40.110401
13.832 -5.04 -39.905201
14.497 -5.04 -39.7864
15.162 -5.04 -39.566799
15.827 -5.04 -39.304001
16.492001 -5.04 -39.500198
17.157 -5.04 -39.489399
17.822001 -5.04 -39.305801
18.487 -5.04 -39.359798
19.152 -5.04 -39.179798
19.816999 -5.04 -39.003399
20.482 -5.04 -39.001598
21.146999 -5.04 -38.872002
21.812 -5.04 -38.8414
22.476999 -5.04 -38.872002
23.142 -5.04 -38.645199
23.806999 -5.04 -38.553398
24.472 -5.04 -38.4184
25.136999 -5.04 -38.411201
25.802 -5.04 -38.3176
26.466999 -5.04 -38.332001
27.132 -5.04 -38.4436
27.797001 -5.04 -38.166401
28.462 -5.04 -37.9576
29.127001 -5.04 -38.485001
29.792 -5.04 -37.5634
30.457001 -5.04 -37.541801
31.122 -5.04 -37.615601
31.787001 -5.04 -37.579601
32.452 -5.04 -37.486
33.117001 -5.04 -37
33.782001 -5.04 -37.273602
34.446999 -5.04 -37.297001
35.112 -5.04 -37.4338
35.777 -5.04 -37.451801
36.442001 -5.04 -37.505798
37.106998 -5.04 -37.098999
37.771999 -5.04 -37.4212
38.437 -5.04 -37.2034
39.102001 -5.04 -36.8452
39.766998 -5.04 -37.027
40.431999 -5.04 -36.838001
41.097 -5.04 -36.870399
41.762001 -5.04 -37.0882
42.426998 -5.04 -37.3438
43.091999 -5.04 -38.128601
43.757 -5.04 -38.366199
44.422001 -5.04 -39.183399
45.087002 -5.04 -39.318401
45.751999 -5.04 -39.842201
46.417 -5.04 -40.288601
47.082001 -5.04 -41.3722
47.747002 -5.04 -47.497601
48.411999 -5.04 -47.497601
49.077 -5.04 -48.3634
49.742001 -5.04 -48.744999
50.407001 -5.04 -49.229198
51.071999 -5.04 -49.918598
51.737 -5.04 -50.834801
52.402 -5.04 -52.002998
53.067001 -5.04 -52.899399
53.731998 -5.04 -53.695
54.396999 -5.04 -54.5662
55.062 -5.04 -55.4986
55.727001 -5.04 -56.524601
56.391998 -5.04 -57.257198
57.056999 -5.04 -57.784599
57.722 -5.04 -58.3624
58.387001 -5.04 -60.135399
59.051998 -5.04 -61.553799
59.716999 -5.04 -61.9534
60.382 -5.04 -62.178398
61.047001 -5.04 -63.429401
61.712002 -5.04 -64.516602
62.376999 -5.04 -66.033997
63.042 -5.04 -67.290398
63.707001 -5.04 -68.593597
64.372002 -5.04 -inf
65.037003 -5.04 -inf
65.702003 -5.04 -inf
66.366997 -5.04 -inf
67.031998 -5.04 -inf
67.696999 -5.04 -inf
68.362 -5.04 -inf
69.027 -5.04 -inf
69.692001 -5.04 -inf
70.357002 -5.04 -inf
71.022003 -5.04 -inf
71.686996 -5.04 -inf
72.351997 -5.04 -inf
73.016998 -5.04 -inf
73.681999 -5.04 -inf
74.347 -5.04 -inf
75.012001 -5.04 -inf
75.677002 -5.04 -inf
