# .PCD v0.7 - Point Cloud Data file format
VERSION 0.7
FIELDS x y z
SIZE 4 4 4
TYPE F F F
COUNT 1 1 1
WIDTH 1724
HEIGHT 1
VIEWPOINT 0 0 0 1 0 0 0
POINTS 1724
DATA ascii
27.664 -23.76 -32.339802
28.329 -23.76 -32.145401
28.993999 -23.76 -31.915001
29.659 -23.76 -31.896999
30.323999 -23.76 -32.5522
30.989 -23.76 -33.110199
31.653999 -23.76 -33.606998
32.319 -23.76 -33.941799
32.984001 -23.76 -33.776199
33.648998 -23.76 -33.884201
34.313999 -23.76 -34.728401
34.979 -23.76 -34.440399
35.644001 -23.76 -34.496201
36.308998 -23.76 -34.069599
36.973999 -23.76 -34.078602
37.639 -23.76 -34.605999
38.304001 -23.76 -34.886799
38.969002 -23.76 -35.072201
39.633999 -23.76 -35.538399
40.299 -23.76 -35.921799
40.964001 -23.76 -36.199001
41.629002 -23.76 -36.4888
42.293999 -23.76 -36.753399
42.959 -23.76 -37.1422
43.624001 -23.76 -37.622799
44.289001 -23.76 -37.917999
44.953999 -23.76 -38.513802
45.618999 -23.76 -38.898998
46.284 -23.76 -39.516399
46.949001 -23.76 -39.8008
47.613998 -23.76 -40.186001
48.278999 -23.76 -40.544201
48.944 -23.76 -41.0914
49.609001 -23.76 -41.527
50.273998 -23.76 -41.797001
50.938999 -23.76 -42.308201
51.604 -23.76 -42.9832
52.269001 -23.76 -43.445801
52.933998 -23.76 -43.534
53.598999 -23.76 -43.573601
54.264 -23.76 -43.870602
54.929001 -23.76 -44.362
55.594002 -23.76 -44.4664
56.258999 -23.76 -44.804798
56.924 -23.76 -45.252998
57.589001 -23.76 -46.027
58.254002 -23.76 -46.837002
58.918999 -23.76 -47.862999
59.584 -23.76 -48.9772
60.249001 -23.76 -50.210201
60.914001 -23.76 -51.130001
61.578999 -23.76 -51.997601
62.243999 -23.76 -52.805801
62.909 -23.76 -54.0532
63.574001 -23.76 -55.1782
64.238998 -23.76 -55.6768
64.903999 -23.76 -56.783798
65.569 -23.76 -inf
66.234001 -23.76 -inf
66.899002 -23.76 -inf
67.564003 -23.76 -inf
-69.426003 -23.040001 -inf
-68.761002 -23.040001 -inf
-68.096001 -23.040001 -inf
-67.431 -23.040001 -inf
-66.765999 -23.040001 -inf
-66.100998 -23.040001 -inf
-65.435997 -23.040001 -inf
-64.771004 -23.040001 -inf
-64.106003 -23.040001 -inf
-63.441002 -23.040001 -67.718803
-62.776001 -23.040001 -66.613602
-62.111 -23.040001 -65.387802
-61.445999 -23.040001 -64.347397
-60.780998 -23.040001 -63.627399
-60.116001 -23.040001 -62.7202
-59.451 -23.040001 -61.960602
-58.785999 -23.040001 -61.330601
-58.120998 -23.040001 -60.8536
-57.456001 -23.040001 -60.5602
-56.791 -23.040001 -60.553001
-56.125999 -23.040001 -60.234402
-55.460999 -23.040001 -60.115601
-54.796001 -23.040001 -59.982399
-54.131001 -23.040001 -59.708801
-53.466 -23.040001 -59.298401
-52.800999 -23.040001 -58.7836
-52.136002 -23.040001 -58.947399
-51.471001 -23.040001 -58.457802
-50.806 -23.040001 -58.2742
-50.140999 -23.040001 -65.958397
-49.476002 -23.040001 -57.368801
-48.811001 -23.040001 -56.6488
-48.146 -23.040001 -56.1628
-47.480999 -23.040001 -55.9198
-46.816002 -23.040001 -55.674999
-46.151001 -23.040001 -55.7938
-45.486 -23.040001 -55.608398
-44.820999 -23.040001 -55.2934
-44.155998 -23.040001 -55.0378
-43.491001 -23.040001 -54.7948
-42.826 -23.040001 -54.451
-42.160999 -23.040001 -54.265598
-41.495998 -23.040001 -53.945202
-40.831001 -23.040001 -53.848
-40.166 -23.040001 -53.5564
-39.500999 -23.040001 -53.397999
-38.835999 -23.040001 -53.0812
-38.171001 -23.040001 -52.753601
-37.506001 -23.040001 -52.5574
-36.841 -23.040001 -52.229801
-36.175999 -23.040001 -51.873402
-35.511002 -23.040001 -65.448997
-34.846001 -23.040001 -51.2938
-34.181 -23.040001 -63.375401
-33.515999 -23.040001 -63.5914
-32.851002 -23.040001 -51.043598
-32.186001 -23.040001 -50.834801
-31.521 -23.040001 -50.631401
-30.856001 -23.040001 -50.370399
-30.191 -23.040001 -50.348801
-29.525999 -23.040001 -50.0644
-28.861 -23.040001 -49.659401
-28.195999 -23.040001 -49.443401
-27.531 -23.040001 -49.0564
-26.865999 -23.040001 -48.676601
-26.201 -23.040001 -48.394001
-25.535999 -23.040001 -48.25
-24.871 -23.040001 -48.080799
-24.205999 -23.040001 -47.657799
-23.541 -23.040001 -47.499401
-22.875999 -23.040001 -47.389599
-22.211 -23.040001 -47.040401
-21.546 -23.040001 -46.642601
-20.881001 -23.040001 -46.248402
-20.216 -23.040001 -46.118801
-19.551001 -23.040001 -45.672401
-18.886 -23.040001 -45.472599
-18.221001 -23.040001 -45.153999
-17.556 -23.040001 -45.055
-16.891001 -23.040001 -44.718399
-16.226 -23.040001 -44.691399
-15.561 -23.040001 -44.563599
-14.896 -23.040001 -44.259399
-14.231 -23.040001 -44.0578
-13.566 -23.040001 -43.768002
-12.901 -23.040001 -43.6222
-12.236 -23.040001 -43.488998
-11.571 -23.040001 -43.645599
-10.906 -23.040001 -43.465599
-10.241 -23.040001 -43.4062
-9.5760002 -23.040001 -43.048
-8.9110003 -23.040001 -42.1768
-8.2460003 -23.040001 -42.250599
-7.5809999 -23.040001 -42.041801
-6.9159999 -23.040001 -41.827599
-6.2509999 -23.040001 -41.6026
-5.586 -23.040001 -41.777199
-4.921 -23.040001 -41.393799
-4.256 -23.040001 -41.120201
-3.5910001 -23.040001 -40.781799
-2.9260001 -23.040001 -40.628799
-2.2609999 -23.040001 -40.128399
-1.596 -23.040001 -39.968201
-0.93099999 -23.040001 -39.599201
-0.266 -23.040001 -39.629799
0.39899999 -23.040001 -39.026798
1.064 -23.040001 -39.098801
1.729 -23.040001 -38.882801
2.3940001 -23.040001 -38.371601
3.059 -23.040001 -38.846802
3.724 -23.040001 -38.4328
4.3889999 -23.040001 -38.184399
5.0539999 -23.040001 -37.365398
5.7189999 -23.040001 -37.3978
6.3839998 -23.040001 -37.183601
7.0489998 -23.040001 -36.937
7.7140002 -23.040001 -36.571602
8.3789997 -23.040001 -36.089199
9.0439997 -23.040001 -36.312401
9.7089996 -23.040001 -36.082001
10.374 -23.040001 -35.783199
11.039 -23.040001 -35.486198
11.704 -23.040001 -35.207199
12.369 -23.040001 -34.780602
13.034 -23.040001 -34.879601
13.699 -23.040001 -34.562801
14.364 -23.040001 -34.492599
15.029 -23.040001 -34.425999
15.694 -23.040001 -33.679001
16.358999 -23.040001 -33.723999
17.024 -23.040001 -33.769001
17.688999 -23.040001 -33.3064
18.354 -23.040001 -32.9716
19.018999 -23.040001 -32.8312
19.684 -23.040001 -32.732201
20.349001 -23.040001 -32.581001
21.014 -23.040001 -32.069801
21.679001 -23.040001 -32.057201
22.344 -23.040001 -31.6882
23.009001 -23.040001 -31.792601
23.674 -23.040001 -31.7188
24.339001 -23.040001 -31.528
25.004 -23.040001 -31.5748
25.669001 -23.040001 -31.681
26.334 -23.040001 -31.9042
26.999001 -23.040001 -31.875401
27.664 -23.040001 -32.093201
28.329 -23.040001 -32.186798
28.993999 -23.040001 -32.1292
29.659 -23.040001 -32.114799
30.323999 -23.040001 -32.851002
30.989 -23.040001 -33.049
31.653999 -23.040001 -33.632198
32.319 -23.040001 -33.513401
32.984001 -23.040001 -33.553001
33.648998 -23.040001 -33.696999
34.313999 -23.040001 -34.337799
34.979 -23.040001 -34.386398
35.644001 -23.040001 -34.114601
36.308998 -23.040001 -34.028198
36.973999 -23.040001 -34.1236
37.639 -23.040001 -34.298199
38.304001 -23.040001 -34.847198
38.969002 -23.040001 -35.230598
39.633999 -23.040001 -35.540199
40.299 -23.040001 -36.024399
40.964001 -23.040001 -36.116199
41.629002 -23.040001 -36.314201
42.293999 -23.040001 -36.549999
42.959 -23.040001 -37.572399
43.624001 -23.040001 -37.8442
44.289001 -23.040001 -38.299599
44.953999 -23.040001 -38.639801
45.618999 -23.040001 -39.104198
46.284 -23.040001 -39.4048
46.949001 -23.040001 -39.9772
47.613998 -23.040001 -40.423599
48.278999 -23.040001 -40.713402
48.944 -23.040001 -40.920399
49.609001 -23.040001 -41.618801
50.273998 -23.040001 -41.8564
50.938999 -23.040001 -42.2938
51.604 -23.040001 -42.839199
52.269001 -23.040001 -43.361198
52.933998 -23.040001 -43.66
53.598999 -23.040001 -43.859798
54.264 -23.040001 -43.982201
54.929001 -23.040001 -44.1586
55.594002 -23.040001 -44.5294
56.258999 -23.040001 -44.687801
56.924 -23.040001 -45.071201
57.589001 -23.040001 -45.784
58.254002 -23.040001 -46.7272
58.918999 -23.040001 -47.769402
59.584 -23.040001 -48.880001
60.249001 -23.040001 -50.265999
60.914001 -23.040001 -51.1012
61.578999 -23.040001 -51.9454
62.243999 -23.040001 -53.02
62.909 -23.040001 -54.2332
63.574001 -23.040001 -55.811798
64.238998 -23.040001 -56.5732
64.903999 -23.040001 -57.230202
65.569 -23.040001 -inf
66.234001 -23.040001 -inf
66.899002 -23.040001 -inf
67.564003 -23.040001 -inf
-69.426003 -22.32 -inf
-68.761002 -22.32 -inf
-68.096001 -22.32 -inf
-67.431 -22.32 -inf
-66.765999 -22.32 -inf
-66.100998 -22.32 -inf
-65.435997 -22.32 -inf
-64.771004 -22.32 -inf
-64.106003 -22.32 -inf
-63.441002 -22.32 -inf
-62.776001 -22.32 -67.180603
-62.111 -22.32 -66.055603
-61.445999 -22.32 -64.9972
-60.780998 -22.32 -64.010803
-60.116001 -22.32 -62.790401
-59.451 -22.32 -62.117199
-58.785999 -22.32 -61.777
-58.120998 -22.32 -61.056999
-57.456001 -22.32 -60.513401
-56.791 -22.32 -60.495399
-56.125999 -22.32 -60.382
-55.460999 -22.32 -60.257801
-54.796001 -22.32 -60.0634
-54.131001 -22.32 -59.959
-53.466 -22.32 -59.503601
-52.800999 -22.32 -59.292999
-52.136002 -22.32 -59.390202
-51.471001 -22.32 -58.549599
-50.806 -22.32 -58.063599
-50.140999 -22.32 -57.489399
-49.476002 -22.32 -57.368801
-48.811001 -22.32 -57.0952
-48.146 -22.32 -56.616402
-47.480999 -22.32 -56.2132
-46.816002 -22.32 -55.639
-46.151001 -22.32 -56.015202
-45.486 -22.32 -55.642601
-44.820999 -22.32 -55.2682
-44.155998 -22.32 -55.001801
-43.491001 -22.32 -54.9118
-42.826 -22.32 -54.375401
-42.160999 -22.32 -54.4258
-41.495998 -22.32 -54.208
-40.831001 -22.32 -54.199001
-40.166 -22.32 -53.979401
-39.500999 -22.32 -53.803001
-38.835999 -22.32 -53.569
-38.171001 -22.32 -53.115398
-37.506001 -22.32 -52.703201
-36.841 -22.32 -52.055199
-36.175999 -22.32 -51.806801
-35.511002 -22.32 -65.448997
-34.846001 -22.32 -51.302799
-34.181 -22.32 -63.375401
-33.515999 -22.32 -63.5914
-32.851002 -22.32 -60.5242
-32.186001 -22.32 -50.885201
-31.521 -22.32 -50.638599
-30.856001 -22.32 -50.374001
-30.191 -22.32 -50.199402
-29.525999 -22.32 -49.9636
-28.861 -22.32 -49.689999
-28.195999 -22.32 -49.479401
-27.531 -22.32 -49.214802
-26.865999 -22.32 -48.907001
-26.201 -22.32 -48.422798
-25.535999 -22.32 -48.214001
-24.871 -22.32 -47.9566
-24.205999 -22.32 -47.7388
-23.541 -22.32 -47.629002
-22.875999 -22.32 -47.254601
-22.211 -22.32 -46.797401
-21.546 -22.32 -46.5382
-20.881001 -22.32 -46.1404
-20.216 -22.32 -46.109798
-19.551001 -22.32 -45.7192
-18.886 -22.32 -45.5914
-18.221001 -22.32 -45.317799
-17.556 -22.32 -45.357399
-16.891001 -22.32 -45.004601
-16.226 -22.32 -44.648201
-15.561 -22.32 -44.560001
-14.896 -22.32 -44.225201
-14.231 -22.32 -43.982201
-13.566 -22.32 -43.793201
-12.901 -22.32 -43.739201
-12.236 -22.32 -43.485401
-11.571 -22.32 -43.541199
-10.906 -22.32 -43.368401
-10.241 -22.32 -43.159599
-9.5760002 -22.32 -42.736599
-8.9110003 -22.32 -42.157001
-8.2460003 -22.32 -42.3172
-7.5809999 -22.32 -42.004002
-6.9159999 -22.32 -41.688999
-6.2509999 -22.32 -41.723202
-5.586 -22.32 -41.996799
-4.921 -22.32 -41.343399
-4.256 -22.32 -41.183201
-3.5910001 -22.32 -40.664799
-2.9260001 -22.32 -40.164398
-2.2609999 -22.32 -39.986198
-1.596 -22.32 -40.121201
-0.93099999 -22.32 -39.583
-0.266 -22.32 -39.178001
0.39899999 -22.32 -38.922401
1.064 -22.32 -38.976398
1.729 -22.32 -38.772999
2.3940001 -22.32 -38.5228
3.059 -22.32 -38.2798
3.724 -22.32 -38.229401
4.3889999 -22.32 -37.647999
5.0539999 -22.32 -37.133202
5.7189999 -22.32 -37.624599
6.3839998 -22.32 -37.1908
7.0489998 -22.32 -36.888401
7.7140002 -22.32 -36.8452
8.3789997 -22.32 -36.330399
9.0439997 -22.32 -36.227798
9.7089996 -22.32 -36.1558
10.374 -22.32 -35.664398
11.039 -22.32 -35.322399
11.704 -22.32 -35.378201
12.369 -22.32 -35.3908
13.034 -22.32 -34.746399
13.699 -22.32 -34.721199
14.364 -22.32 -34.809399
15.029 -22.32 -34.472801
15.694 -22.32 -33.736599
16.358999 -22.32 -33.562
17.024 -22.32 -33.743801
17.688999 -22.32 -33.3046
18.354 -22.32 -33.009399
19.018999 -22.32 -32.710602
19.684 -22.32 -33.009399
20.349001 -22.32 -32.4874
21.014 -22.32 -32.275002
21.679001 -22.32 -31.9834
22.344 -22.32 -31.5532
23.009001 -22.32 -31.691799
23.674 -22.32 -31.499201
24.339001 -22.32 -31.398399
25.004 -22.32 -31.709801
25.669001 -22.32 -31.726
26.334 -22.32 -31.722401
26.999001 -22.32 -31.7008
27.664 -22.32 -31.677401
28.329 -22.32 -32.022999
28.993999 -22.32 -32.073399
29.659 -22.32 -32.339802
30.323999 -22.32 -32.597198
30.989 -22.32 -33.018398
31.653999 -22.32 -33.259602
32.319 -22.32 -33.641201
32.984001 -22.32 -34.165001
33.648998 -22.32 -34.024601
34.313999 -22.32 -34.658199
34.979 -22.32 -34.327
35.644001 -22.32 -34.291
36.308998 -22.32 -34.228001
36.973999 -22.32 -34.717602
37.639 -22.32 -34.3792
38.304001 -22.32 -34.5466
38.969002 -22.32 -35.387199
39.633999 -22.32 -35.293598
40.299 -22.32 -35.907398
40.964001 -22.32 -36.465401
41.629002 -22.32 -36.175598
42.293999 -22.32 -36.989201
42.959 -22.32 -37.365398
43.624001 -22.32 -38.121399
44.289001 -22.32 -38.450802
44.953999 -22.32 -39.183399
45.618999 -22.32 -39.1996
46.284 -22.32 -39.705399
46.949001 -22.32 -40.090599
47.613998 -22.32 -40.747601
48.278999 -22.32 -40.868198
48.944 -22.32 -41.327202
49.609001 -22.32 -41.797001
50.273998 -22.32 -42.180401
50.938999 -22.32 -42.569199
51.604 -22.32 -43.076801
52.269001 -22.32 -43.327
52.933998 -22.32 -43.695999
53.598999 -22.32 -44.047001
54.264 -22.32 -44.048801
54.929001 -22.32 -44.1586
55.594002 -22.32 -44.412399
56.258999 -22.32 -44.626598
56.924 -22.32 -45.109001
57.589001 -22.32 -45.733601
58.254002 -22.32 -46.572399
58.918999 -22.32 -47.794601
59.584 -22.32 -49.0294
60.249001 -22.32 -50.080601
60.914001 -22.32 -51.283001
61.578999 -22.32 -52.056999
62.243999 -22.32 -53.149601
62.909 -22.32 -54.249401
63.574001 -22.32 -55.9324
64.238998 -22.32 -57.309399
64.903999 -22.32 -inf
65.569 -22.32 -inf
66.234001 -22.32 -inf
66.899002 -22.32 -inf
67.564003 -22.32 -inf
-69.426003 -21.6 -inf
-68.761002 -21.6 -inf
-68.096001 -21.6 -inf
-67.431 -21.6 -inf
-66.765999 -21.6 -inf
-66.100998 -21.6 -inf
-65.435997 -21.6 -inf
-64.771004 -21.6 -inf
-64.106003 -21.6 -inf
-63.441002 -21.6 -inf
-62.776001 -21.6 -67.9618
-62.111 -21.6 -66.8134
-61.445999 -21.6 -65.495796
-60.780998 -21.6 -64.718201
-60.116001 -21.6 -63.549999
-59.451 -21.6 -62.326
-58.785999 -21.6 -61.895802
-58.120998 -21.6 -61.375599
-57.456001 -21.6 -60.643002
-56.791 -21.6 -60.513401
-56.125999 -21.6 -60.4594
-55.460999 -21.6 -60.319
-54.796001 -21.6 -60.223598
-54.131001 -21.6 -59.937401
-53.466 -21.6 -59.591801
-52.800999 -21.6 -59.458599
-52.136002 -21.6 -59.816799
-51.471001 -21.6 -59.330799
-50.806 -21.6 -58.504601
-50.140999 -21.6 -57.678398
-49.476002 -21.6 -57.640598
-48.811001 -21.6 -57.912399
-48.146 -21.6 -57.5182
-47.480999 -21.6 -56.395
-46.816002 -21.6 -56.128601
-46.151001 -21.6 -55.7938
-45.486 -21.6 -55.5634
-44.820999 -21.6 -55.1908
-44.155998 -21.6 -54.915401
-43.491001 -21.6 -54.695801
-42.826 -21.6 -54.305199
-42.160999 -21.6 -54.278198
-41.495998 -21.6 -54.022598
-40.831001 -21.6 -53.9254
-40.166 -21.6 -53.596001
-39.500999 -21.6 -53.4646
-38.835999 -21.6 -53.304401
-38.171001 -21.6 -53.102798
-37.506001 -21.6 -52.994801
-36.841 -21.6 -52.721199
-36.175999 -21.6 -52.618599
-35.511002 -21.6 -65.448997
-34.846001 -21.6 -65.448997
-34.181 -21.6 -61.174
-33.515999 -21.6 -63.5914
-32.851002 -21.6 -51.1642
-32.186001 -21.6 -51.0994
-31.521 -21.6 -50.8582
-30.856001 -21.6 -50.4496
-30.191 -21.6 -50.275002
-29.525999 -21.6 -49.999599
-28.861 -21.6 -58.924
-28.195999 -21.6 -49.576599
-27.531 -21.6 -49.2976
-26.865999 -21.6 -48.8512
-26.201 -21.6 -48.438999
-25.535999 -21.6 -48.318401
-24.871 -21.6 -48.089802
-24.205999 -21.6 -47.805401
-23.541 -21.6 -47.555199
-22.875999 -21.6 -47.231201
-22.211 -21.6 -46.898201
-21.546 -21.6 -46.403198
-20.881001 -21.6 -46.134998
-20.216 -21.6 -45.9496
-19.551001 -21.6 -45.8866
-18.886 -21.6 -45.7444
-18.221001 -21.6 -45.445599
-17.556 -21.6 -45.166599
-16.891001 -21.6 -44.869598
-16.226 -21.6 -44.756199
-15.561 -21.6 -44.416
-14.896 -21.6 -44.280998
-14.231 -21.6 -44.066799
-13.566 -21.6 -43.694199
-12.901 -21.6 -43.670799
-12.236 -21.6 -43.2262
-11.571 -21.6 -43.361198
-10.906 -21.6 -43.2136
-10.241 -21.6 -43.076801
-9.5760002 -21.6 -42.950802
-8.9110003 -21.6 -42.3316
-8.2460003 -21.6 -42.3172
-7.5809999 -21.6 -42.065201
-6.9159999 -21.6 -42.002201
-6.2509999 -21.6 -41.5126
-5.586 -21.6 -41.492802
-4.921 -21.6 -41.138199
-4.256 -21.6 -41.1292
-3.5910001 -21.6 -40.803398
-2.9260001 -21.6 -40.443401
-2.2609999 -21.6 -40.351601
-1.596 -21.6 -39.817001
-0.93099999 -21.6 -39.880001
-0.266 -21.6 -39.188801
0.39899999 -21.6 -39.203201
1.064 -21.6 -39.230202
1.729 -21.6 -38.7514
2.3940001 -21.6 -38.643398
3.059 -21.6 -38.2384
3.724 -21.6 -37.990002
4.3889999 -21.6 -37.955799
5.0539999 -21.6 -37.633598
5.7189999 -21.6 -37.480598
6.3839998 -21.6 -37.1152
7.0489998 -21.6 -37.055801
7.7140002 -21.6 -36.830799
8.3789997 -21.6 -36.361
9.0439997 -21.6 -36.490601
9.7089996 -21.6 -36.305199
10.374 -21.6 -35.871399
11.039 -21.6 -35.280998
11.704 -21.6 -35.408798
12.369 -21.6 -35.217999
13.034 -21.6 -35.180199
13.699 -21.6 -34.627602
14.364 -21.6 -34.267601
15.029 -21.6 -33.986801
15.694 -21.6 -33.630402
16.358999 -21.6 -34.256802
17.024 -21.6 -33.8536
17.688999 -21.6 -33.567402
18.354 -21.6 -32.8978
19.018999 -21.6 -33.005798
19.684 -21.6 -32.734001
20.349001 -21.6 -32.534199
21.014 -21.6 -32.255199
21.679001 -21.6 -31.9888
22.344 -21.6 -31.851999
23.009001 -21.6 -31.614401
23.674 -21.6 -31.5802
24.339001 -21.6 -31.443399
25.004 -21.6 -31.281401
25.669001 -21.6 -31.871799
26.334 -21.6 -31.391199
26.999001 -21.6 -31.4848
27.664 -21.6 -31.583799
28.329 -21.6 -31.789
28.993999 -21.6 -32.0914
29.659 -21.6 -32.276798
30.323999 -21.6 -32.744801
30.989 -21.6 -32.977001
31.653999 -21.6 -33.248798
32.319 -21.6 -33.480999
32.984001 -21.6 -34.192001
33.648998 -21.6 -34.197399
34.313999 -21.6 -34.1092
34.979 -21.6 -34.285599
35.644001 -21.6 -34.471001
36.308998 -21.6 -34.354
36.973999 -21.6 -34.138
37.639 -21.6 -34.2766
38.304001 -21.6 -34.989399
38.969002 -21.6 -34.913799
39.633999 -21.6 -35.5672
40.299 -21.6 -36.083801
40.964001 -21.6 -36.305199
41.629002 -21.6 -36.721001
42.293999 -21.6 -37.124199
42.959 -21.6 -37.552601
43.624001 -21.6 -38.654202
44.289001 -21.6 -38.526402
44.953999 -21.6 -39.097
45.618999 -21.6 -39.424599
46.284 -21.6 -39.736
46.949001 -21.6 -40.268799
47.613998 -21.6 -40.738602
48.278999 -21.6 -41.0644
48.944 -21.6 -41.433399
49.609001 -21.6 -41.877998
50.273998 -21.6 -42.416199
50.938999 -21.6 -42.704201
51.604 -21.6 -43.0336
52.269001 -21.6 -43.323399
52.933998 -21.6 -43.658199
53.598999 -21.6 -44.7472
54.264 -21.6 -43.831001
54.929001 -21.6 -44.137001
55.594002 -21.6 -44.5294
56.258999 -21.6 -44.6464
56.924 -21.6 -45.008202
57.589001 -21.6 -45.521198
58.254002 -21.6 -46.423
58.918999 -21.6 -47.808998
59.584 -21.6 -48.971802
60.249001 -21.6 -50.190399
60.914001 -21.6 -51.1894
61.578999 -21.6 -52.305401
62.243999 -21.6 -53.181999
62.909 -21.6 -54.278198
63.574001 -21.6 -56.742401
64.238998 -21.6 -inf
64.903999 -21.6 -inf
65.569 -21.6 -inf
66.234001 -21.6 -inf
66.899002 -21.6 -inf
67.564003 -21.6 -inf
-69.426003 -20.879999 -inf
-68.761002 -20.879999 -inf
-68.096001 -20.879999 -inf
-67.431 -20.879999 -inf
-66.765999 -20.879999 -inf
-66.100998 -20.879999 -inf
-65.435997 -20.879999 -inf
-64.771004 -20.879999 -inf
-64.106003 -20.879999 -inf
-63.441002 -20.879999 -inf
-62.776001 -20.879999 -71.253998
-62.111 -20.879999 -67.488403
-61.445999 -20.879999 -66.053802
-60.780998 -20.879999 -65.310402
-60.116001 -20.879999 -63.8092
-59.451 -20.879999 -62.479
-58.785999 -20.879999 -62.088402
-58.120998 -20.879999 -61.525002
-57.456001 -20.879999 -60.950802
-56.791 -20.879999 -60.8158
-56.125999 -20.879999 -60.761799
-55.460999 -20.879999 -60.6106
-54.796001 -20.879999 -60.472
-54.131001 -20.879999 -59.861801
-53.466 -20.879999 -59.59
-52.800999 -20.879999 -59.426201
-52.136002 -20.879999 -59.240799
-51.471001 -20.879999 -58.699001
-50.806 -20.879999 -58.132
-50.140999 -20.879999 -58.193199
-49.476002 -20.879999 -57.422798
-48.811001 -20.879999 -57.548801
-48.146 -20.879999 -57.183399
-47.480999 -20.879999 -56.425598
-46.816002 -20.879999 -56.069199
-46.151001 -20.879999 -55.811798
-45.486 -20.879999 -55.451801
-44.820999 -20.879999 -55.287998
-44.155998 -20.879999 -54.855999
-43.491001 -20.879999 -54.6562
-42.826 -20.879999 -54.319599
-42.160999 -20.879999 -54.177399
-41.495998 -20.879999 -53.878601
-40.831001 -20.879999 -53.5168
-40.166 -20.879999 -inf
-39.500999 -20.879999 -inf
-38.835999 -20.879999 -inf
-38.171001 -20.879999 -53.063202
-37.506001 -20.879999 -62.986599
-36.841 -20.879999 -52.8508
-36.175999 -20.879999 -52.586201
-35.511002 -20.879999 -52.201
-34.846001 -20.879999 -52.055199
-34.181 -20.879999 -61.174
-33.515999 -20.879999 -59.062599
-32.851002 -20.879999 -61.4062
-32.186001 -20.879999 -61.4062
-31.521 -20.879999 -50.9212
-30.856001 -20.879999 -50.59
-30.191 -20.879999 -50.262402
-29.525999 -20.879999 -50.096802
-28.861 -20.879999 -49.978001
-28.195999 -20.879999 -49.754799
-27.531 -20.879999 -49.276001
-26.865999 -20.879999 -49.160801
-26.201 -20.879999 -48.7612
-25.535999 -20.879999 -48.493
-24.871 -20.879999 -47.9674
-24.205999 -20.879999 -47.877399
-23.541 -20.879999 -47.668598
-22.875999 -20.879999 -47.299599
-22.211 -20.879999 -46.876598
-21.546 -20.879999 -46.297001
-20.881001 -20.879999 -45.992802
-20.216 -20.879999 -45.7948
-19.551001 -20.879999 -45.8866
-18.886 -20.879999 -45.737202
-18.221001 -20.879999 -45.3862
-17.556 -20.879999 -44.981201
-16.891001 -20.879999 -44.9254
-16.226 -20.879999 -44.846199
-15.561 -20.879999 -44.6446
-14.896 -20.879999 -44.502399
-14.231 -20.879999 -44.2486
-13.566 -20.879999 -43.748199
-12.901 -20.879999 -43.683399
-12.236 -20.879999 -43.323399
-11.571 -20.879999 -43.262199
-10.906 -20.879999 -43.084
-10.241 -20.879999 -43.026402
-9.5760002 -20.879999 -42.776199
-8.9110003 -20.879999 -42.619598
-8.2460003 -20.879999 -42.007599
-7.5809999 -20.879999 -42.234402
-6.9159999 -20.879999 -41.928398
-6.2509999 -20.879999 -41.716
-5.586 -20.879999 -41.885201
-4.921 -20.879999 -41.2444
-4.256 -20.879999 -41.105801
-3.5910001 -20.879999 -40.466801
-2.9260001 -20.879999 -40.4128
-2.2609999 -20.879999 -40.2328
-1.596 -20.879999 -39.979
-0.93099999 -20.879999 -39.8494
-0.266 -20.879999 -39.431801
0.39899999 -20.879999 -39.192402
1.064 -20.879999 -39.091599
1.729 -20.879999 -39.168999
2.3940001 -20.879999 -38.556999
3.059 -20.879999 -38.306801
3.724 -20.879999 -37.925201
4.3889999 -20.879999 -38.0242
5.0539999 -20.879999 -37.457199
5.7189999 -20.879999 -37.2556
6.3839998 -20.879999 -36.978401
7.0489998 -20.879999 -37.0522
7.7140002 -20.879999 -36.784
8.3789997 -20.879999 -36.787601
9.0439997 -20.879999 -36.056801
9.7089996 -20.879999 -35.743599
10.374 -20.879999 -35.509602
11.039 -20.879999 -35.471802
11.704 -20.879999 -35.3908
12.369 -20.879999 -34.793201
13.034 -20.879999 -34.8382
13.699 -20.879999 -34.604198
14.364 -20.879999 -34.235199
15.029 -20.879999 -34.0084
15.694 -20.879999 -33.966999
16.358999 -20.879999 -33.684399
17.024 -20.879999 -33.686199
17.688999 -20.879999 -33.527802
18.354 -20.879999 -32.775398
19.018999 -20.879999 -32.773602
19.684 -20.879999 -32.5
20.349001 -20.879999 -32.563
21.014 -20.879999 -32.285801
21.679001 -20.879999 -31.798
22.344 -20.879999 -31.7512
23.009001 -20.879999 -31.5982
23.674 -20.879999 -31.959999
24.339001 -20.879999 -31.4758
25.004 -20.879999 -31.2166
25.669001 -20.879999 -31.474001
26.334 -20.879999 -31.438
26.999001 -20.879999 -30.9214
27.664 -20.879999 -31.256201
28.329 -20.879999 -31.653999
28.993999 -20.879999 -32.195801
29.659 -20.879999 -32.6782
30.323999 -20.879999 -32.777199
30.989 -20.879999 -32.980598
31.653999 -20.879999 -33.252399
32.319 -20.879999 -33.684399
32.984001 -20.879999 -34.040798
33.648998 -20.879999 -34.116402
34.313999 -20.879999 -34.202801
34.979 -20.879999 -34.4044
35.644001 -20.879999 -34.447601
36.308998 -20.879999 -34.5574
36.973999 -20.879999 -34.780602
37.639 -20.879999 -34.5448
38.304001 -20.879999 -35.230598
38.969002 -20.879999 -35.410599
39.633999 -20.879999 -36.1576
40.299 -20.879999 -35.934399
40.964001 -20.879999 -36.560799
41.629002 -20.879999 -36.7048
42.293999 -20.879999 -37.003601
42.959 -20.879999 -37.462601
43.624001 -20.879999 -38.116001
44.289001 -20.879999 -38.665001
44.953999 -20.879999 -39.205002
45.618999 -20.879999 -39.556
46.284 -20.879999 -39.881802
46.949001 -20.879999 -40.355202
47.613998 -20.879999 -40.895199
48.278999 -20.879999 -41.183201
48.944 -20.879999 -41.548599
49.609001 -20.879999 -42.0382
50.273998 -20.879999 -42.623199
50.938999 -20.879999 -42.8158
51.604 -20.879999 -42.966999
52.269001 -20.879999 -43.452999
52.933998 -20.879999 -44.072201
53.598999 -20.879999 -44.1478
54.264 -20.879999 -43.8256
54.929001 -20.879999 -44.378201
55.594002 -20.879999 -44.4664
56.258999 -20.879999 -44.5294
56.924 -20.879999 -45.0028
57.589001 -20.879999 -45.622002
58.254002 -20.879999 -46.4356
58.918999 -20.879999 -47.785599
59.584 -20.879999 -49.027599
60.249001 -20.879999 -50.1022
60.914001 -20.879999 -51.076
61.578999 -20.879999 -52.165001
62.243999 -20.879999 -53.322399
62.909 -20.879999 -54.334
63.574001 -20.879999 -56.0224
64.238998 -20.879999 -inf
64.903999 -20.879999 -inf
65.569 -20.879999 -inf
66.234001 -20.879999 -inf
66.899002 -20.879999 -inf
67.564003 -20.879999 -inf
-69.426003 -20.16 -inf
-68.761002 -20.16 -inf
-68.096001 -20.16 -inf
-67.431 -20.16 -inf
-66.765999 -20.16 -inf
-66.100998 -20.16 -inf
-65.435997 -20.16 -inf
-64.771004 -20.16 -inf
-64.106003 -20.16 -inf
-63.441002 -20.16 -inf
-62.776001 -20.16 -71.253998
-62.111 -20.16 -71.083
-61.445999 -20.16 -66.809799
-60.780998 -20.16 -65.999802
-60.116001 -20.16 -64.059402
-59.451 -20.16 -62.569
-58.785999 -20.16 -62.001999
-58.120998 -20.16 -61.6078
-57.456001 -20.16 -61.125401
-56.791 -20.16 -61.044399
-56.125999 -20.16 -60.698799
-55.460999 -20.16 -60.578201
-54.796001 -20.16 -60.367599
-54.131001 -20.16 -59.852798
-53.466 -20.16 -59.4244
-52.800999 -20.16 -59.253399
-52.136002 -20.16 -58.842999
-51.471001 -20.16 -58.8106
-50.806 -20.16 -58.790798
-50.140999 -20.16 -57.411999
-49.476002 -20.16 -57.881802
-48.811001 -20.16 -57.028599
-48.146 -20.16 -56.745998
-47.480999 -20.16 -56.294201
-46.816002 -20.16 -56.216801
-46.151001 -20.16 -55.694801
-45.486 -20.16 -55.797401
-44.820999 -20.16 -55.291599
-44.155998 -20.16 -55.032398
-43.491001 -20.16 -54.765999
-42.826 -20.16 -54.4132
-42.160999 -20.16 -54.1684
-41.495998 -20.16 -53.878601
-40.831001 -20.16 -53.587002
-40.166 -20.16 -53.540199
-39.500999 -20.16 -53.358398
-38.835999 -20.16 -53.345798
-38.171001 -20.16 -53.127998
-37.506001 -20.16 -52.679798
-36.841 -20.16 -52.625801
-36.175999 -20.16 -52.408001
-35.511002 -20.16 -60.886002
-34.846001 -20.16 -52.026402
-34.181 -20.16 -61.174
-33.515999 -20.16 -59.062599
-32.851002 -20.16 -51.743801
-32.186001 -20.16 -51.360401
-31.521 -20.16 -51.131802
-30.856001 -20.16 -50.937401
-30.191 -20.16 -50.451401
-29.525999 -20.16 -50.1814
-28.861 -20.16 -50.161598
-28.195999 -20.16 -49.879002
-27.531 -20.16 -49.257999
-26.865999 -20.16 -49.178799
-26.201 -20.16 -48.674801
-25.535999 -20.16 -48.446201
-24.871 -20.16 -47.952999
-24.205999 -20.16 -47.6866
-23.541 -20.16 -47.346401
-22.875999 -20.16 -47.152
-22.211 -20.16 -46.6768
-21.546 -20.16 -46.352798
-20.881001 -20.16 -45.848801
-20.216 -20.16 -45.895599
-19.551001 -20.16 -45.636398
-18.886 -20.16 -45.5788
-18.221001 -20.16 -45.420399
-17.556 -20.16 -45.162998
-16.891001 -20.16 -45.126999
-16.226 -20.16 -44.893002
-15.561 -20.16 -44.770599
-14.896 -20.16 -44.588799
-14.231 -20.16 -44.4772
-13.566 -20.16 -44.0182
-12.901 -20.16 -43.8004
-12.236 -20.16 -43.632999
-11.571 -20.16 -43.159599
-10.906 -20.16 -43.075001
-10.241 -20.16 -43.055199
-9.5760002 -20.16 -42.799599
-8.9110003 -20.16 -42.4594
-8.2460003 -20.16 -42.455799
-7.5809999 -20.16 -42.416199
-6.9159999 -20.16 -42.079601
-6.2509999 -20.16 -41.563
-5.586 -20.16 -41.303799
-4.921 -20.16 -41.0518
-4.256 -20.16 -40.798
-3.5910001 -20.16 -40.943802
-2.9260001 -20.16 -40.7206
-2.2609999 -20.16 -40.3246
-1.596 -20.16 -40.270599
-0.93099999 -20.16 -39.736
-0.266 -20.16 -39.678398
0.39899999 -20.16 -39.341801
1.064 -20.16 -39.410198
1.729 -20.16 -38.965599
2.3940001 -20.16 -38.935001
3.059 -20.16 -38.697399
3.724 -20.16 -38.1106
4.3889999 -20.16 -38.042198
5.0539999 -20.16 -37.903599
5.7189999 -20.16 -37.275398
6.3839998 -20.16 -37.187199
7.0489998 -20.16 -37.261002
7.7140002 -20.16 -36.672401
8.3789997 -20.16 -36.391602
9.0439997 -20.16 -36.301601
9.7089996 -20.16 -35.833599
10.374 -20.16 -35.565399
11.039 -20.16 -35.237801
11.704 -20.16 -35.219799
12.369 -20.16 -34.84
13.034 -20.16 -34.6744
13.699 -20.16 -34.903
14.364 -20.16 -34.229801
15.029 -20.16 -33.8176
15.694 -20.16 -33.696999
16.358999 -20.16 -33.729401
17.024 -20.16 -33.679001
17.688999 -20.16 -33.443199
18.354 -20.16 -32.969799
19.018999 -20.16 -32.492802
19.684 -20.16 -32.233601
20.349001 -20.16 -32.455002
21.014 -20.16 -32.300201
21.679001 -20.16 -32.041
22.344 -20.16 -31.882601
23.009001 -20.16 -31.5478
23.674 -20.16 -31.538799
24.339001 -20.16 -31.364201
25.004 -20.16 -31.148199
25.669001 -20.16 -31.461399
26.334 -20.16 -31.250799
26.999001 -20.16 -31.0924
27.664 -20.16 -31.0942
28.329 -20.16 -31.454201
28.993999 -20.16 -31.9132
29.659 -20.16 -32.694401
30.323999 -20.16 -32.757401
30.989 -20.16 -32.797001
31.653999 -20.16 -33.120998
32.319 -20.16 -33.4324
32.984001 -20.16 -33.628601
33.648998 -20.16 -34.075001
34.313999 -20.16 -34.357601
34.979 -20.16 -34.550201
35.644001 -20.16 -34.600601
36.308998 -20.16 -34.75
36.973999 -20.16 -34.4818
37.639 -20.16 -34.985802
38.304001 -20.16 -35.250401
38.969002 -20.16 -35.5564
39.633999 -20.16 -35.9146
40.299 -20.16 -36.389801
40.964001 -20.16 -36.542801
41.629002 -20.16 -36.875801
42.293999 -20.16 -37.082802
42.959 -20.16 -37.682201
43.624001 -20.16 -38.4058
44.289001 -20.16 -39.010601
44.953999 -20.16 -39.233799
45.618999 -20.16 -39.770199
46.284 -20.16 -40.303001
46.949001 -20.16 -40.6036
47.613998 -20.16 -41.107601
48.278999 -20.16 -41.467602
48.944 -20.16 -41.9338
49.609001 -20.16 -42.320801
50.273998 -20.16 -43.172199
50.938999 -20.16 -43.231602
51.604 -20.16 -43.832802
52.269001 -20.16 -43.7878
52.933998 -20.16 -44.036201
53.598999 -20.16 -43.9534
54.264 -20.16 -44.2756
54.929001 -20.16 -44.2108
55.594002 -20.16 -44.257599
56.258999 -20.16 -44.507801
56.924 -20.16 -44.956001
57.589001 -20.16 -45.620201
58.254002 -20.16 -46.399601
58.918999 -20.16 -47.670399
59.584 -20.16 -48.987999
60.249001 -20.16 -50.0644
60.914001 -20.16 -50.9986
61.578999 -20.16 -51.646599
62.243999 -20.16 -53.243198
62.909 -20.16 -54.377201
63.574001 -20.16 -56.1502
64.238998 -20.16 -inf
64.903999 -20.16 -inf
65.569 -20.16 -inf
66.234001 -20.16 -inf
66.899002 -20.16 -inf
67.564003 -20.16 -inf
-69.426003 -19.440001 -inf
-68.761002 -19.440001 -inf
-68.096001 -19.440001 -inf
-67.431 -19.440001 -inf
-66.765999 -19.440001 -inf
-66.100998 -19.440001 -inf
-65.435997 -19.440001 -inf
-64.771004 -19.440001 -inf
-64.106003 -19.440001 -inf
-63.441002 -19.440001 -inf
-62.776001 -19.440001 -inf
-62.111 -19.440001 -inf
-61.445999 -19.440001 -67.878998
-60.780998 -19.440001 -66.410202
-60.116001 -19.440001 -65.899002
-59.451 -19.440001 -62.750801
-58.785999 -19.440001 -61.913799
-58.120998 -19.440001 -61.542999
-57.456001 -19.440001 -61.201
-56.791 -19.440001 -61.0354
-56.125999 -19.440001 -60.6628
-55.460999 -19.440001 -60.553001
-54.796001 -19.440001 -60.2164
-54.131001 -19.440001 -60.0238
-53.466 -19.440001 -59.739399
-52.800999 -19.440001 -59.885201
-52.136002 -19.440001 -60.315399
-51.471001 -19.440001 -60.477402
-50.806 -19.440001 -60.259602
-50.140999 -19.440001 -59.915798
-49.476002 -19.440001 -58.340801
-48.811001 -19.440001 -57.375999
-48.146 -19.440001 -56.819801
-47.480999 -19.440001 -56.465199
-46.816002 -19.440001 -56.403999
-46.151001 -19.440001 -56.157398
-45.486 -19.440001 -56.029598
-44.820999 -19.440001 -55.721802
-44.155998 -19.440001 -55.278999
-43.491001 -19.440001 -55.068401
-42.826 -19.440001 -54.748001
-42.160999 -19.440001 -54.4114
-41.495998 -19.440001 -54.047798
-40.831001 -19.440001 -53.768799
-40.166 -19.440001 -53.407001
-39.500999 -19.440001 -53.470001
-38.835999 -19.440001 -53.475399
-38.171001 -19.440001 -53.192799
-37.506001 -19.440001 -53.0182
-36.841 -19.440001 -59.341599
-36.175999 -19.440001 -59.341599
-35.511002 -19.440001 -52.460201
-34.846001 -19.440001 -52.386398
-34.181 -19.440001 -52.087601
-33.515999 -19.440001 -59.062599
-32.851002 -19.440001 -52.100201
-32.186001 -19.440001 -51.869801
-31.521 -19.440001 -51.596199
-30.856001 -19.440001 -51.1012
-30.191 -19.440001 -50.285801
-29.525999 -19.440001 -50.347
-28.861 -19.440001 -49.852001
-28.195999 -19.440001 -49.778198
-27.531 -19.440001 -49.356998
-26.865999 -19.440001 -49.164398
-26.201 -19.440001 -48.525398
-25.535999 -19.440001 -48.3904
-24.871 -19.440001 -48.080799
-24.205999 -19.440001 -47.618198
-23.541 -19.440001 -47.234798
-22.875999 -19.440001 -47.0476
-22.211 -19.440001 -46.693001
-21.546 -19.440001 -46.2034
-20.881001 -19.440001 -46.061199
-20.216 -19.440001 -45.9496
-19.551001 -19.440001 -45.8074
-18.886 -19.440001 -45.569801
-18.221001 -19.440001 -45.366402
-17.556 -19.440001 -45.368198
-16.891001 -19.440001 -44.9884
-16.226 -19.440001 -44.752602
-15.561 -19.440001 -44.711201
-14.896 -19.440001 -44.407001
-14.231 -19.440001 -44.450199
-13.566 -19.440001 -44.291801
-12.901 -19.440001 -43.899399
-12.236 -19.440001 -43.589802
-11.571 -19.440001 -43.204601
-10.906 -19.440001 -42.993999
-10.241 -19.440001 -42.898602
-9.5760002 -19.440001 -42.878799
-8.9110003 -19.440001 -42.423401
-8.2460003 -19.440001 -42.250599
-7.5809999 -19.440001 -42.1894
-6.9159999 -19.440001 -41.987801
-6.2509999 -19.440001 -41.5522
-5.586 -19.440001 -41.420799
-4.921 -19.440001 -41.098598
-4.256 -19.440001 -40.844799
-3.5910001 -19.440001 -40.756599
-2.9260001 -19.440001 -40.954601
-2.2609999 -19.440001 -40.598202
-1.596 -19.440001 -40.409199
-0.93099999 -19.440001 -39.887199
-0.266 -19.440001 -39.579399
0.39899999 -19.440001 -39.431801
1.064 -19.440001 -39.446201
1.729 -19.440001 -39.284199
2.3940001 -19.440001 -38.7892
3.059 -19.440001 -38.524601
3.724 -19.440001 -38.346401
4.3889999 -19.440001 -37.9828
5.0539999 -19.440001 -37.770401
5.7189999 -19.440001 -37.451801
6.3839998 -19.440001 -37.232201
7.0489998 -19.440001 -36.7696
7.7140002 -19.440001 -36.6922
8.3789997 -19.440001 -36.7174
9.0439997 -19.440001 -36.571602
9.7089996 -19.440001 -35.903801
10.374 -19.440001 -36.332199
11.039 -19.440001 -35.509602
11.704 -19.440001 -35.205399
12.369 -19.440001 -34.976799
13.034 -19.440001 -34.9678
13.699 -19.440001 -34.632999
14.364 -19.440001 -34.152401
15.029 -19.440001 -33.922001
15.694 -19.440001 -33.837399
16.358999 -19.440001 -33.718601
17.024 -19.440001 -33.6394
17.688999 -19.440001 -33.527802
18.354 -19.440001 -33.428799
19.018999 -19.440001 -32.9734
19.684 -19.440001 -32.003201
20.349001 -19.440001 -32.5774
21.014 -19.440001 -32.238998
21.679001 -19.440001 -32.221001
22.344 -19.440001 -31.7656
23.009001 -19.440001 -31.927601
23.674 -19.440001 -31.8106
24.339001 -19.440001 -31.3498
25.004 -19.440001 -30.943001
25.669001 -19.440001 -30.9016
26.334 -19.440001 -30.7738
26.999001 -19.440001 -30.982599
27.664 -19.440001 -30.7414
28.329 -19.440001 -31.245399
28.993999 -19.440001 -31.972601
29.659 -19.440001 -32.433399
30.323999 -19.440001 -32.906799
30.989 -19.440001 -33.2794
31.653999 -19.440001 -33.1516
32.319 -19.440001 -33.785198
32.984001 -19.440001 -33.7384
33.648998 -19.440001 -34.321602
34.313999 -19.440001 -34.6096
34.979 -19.440001 -34.715801
35.644001 -19.440001 -35.001999
36.308998 -19.440001 -35.101002
36.973999 -19.440001 -34.5844
37.639 -19.440001 -34.692402
38.304001 -19.440001 -35.460999
38.969002 -19.440001 -35.597801
39.633999 -19.440001 -36.024399
40.299 -19.440001 -36.503201
40.964001 -19.440001 -36.667
41.629002 -19.440001 -37.475201
42.293999 -19.440001 -37.583199
42.959 -19.440001 -37.808201
43.624001 -19.440001 -38.3284
44.289001 -19.440001 -38.908001
44.953999 -19.440001 -39.358002
45.618999 -19.440001 -39.815201
46.284 -19.440001 -40.405602
46.949001 -19.440001 -40.7962
47.613998 -19.440001 -41.186798
48.278999 -19.440001 -41.438801
48.944 -19.440001 -42.077801
49.609001 -19.440001 -43.094799
50.273998 -19.440001 -43.3144
50.938999 -19.440001 -43.631199
51.604 -19.440001 -43.874199
52.269001 -19.440001 -44.047001
52.933998 -19.440001 -44.028999
53.598999 -19.440001 -44.252201
54.264 -19.440001 -44.475399
54.929001 -19.440001 -44.396198
55.594002 -19.440001 -44.563599
56.258999 -19.440001 -44.498798
56.924 -19.440001 -44.983002
57.589001 -19.440001 -45.605801
58.254002 -19.440001 -46.464401
58.918999 -19.440001 -47.682999
59.584 -19.440001 -48.907001
60.249001 -19.440001 -50.082401
60.914001 -19.440001 -51.1534
61.578999 -19.440001 -52.039001
62.243999 -19.440001 -53.430401
62.909 -19.440001 -54.380798
63.574001 -19.440001 -56.346401
64.238998 -19.440001 -inf
64.903999 -19.440001 -inf
65.569 -19.440001 -inf
66.234001 -19.440001 -inf
66.899002 -19.440001 -inf
67.564003 -19.440001 -inf
-69.426003 -18.719999 -inf
-68.761002 -18.719999 -inf
-68.096001 -18.719999 -inf
-67.431 -18.719999 -inf
-66.765999 -18.719999 -inf
-66.100998 -18.719999 -inf
-65.435997 -18.719999 -inf
-64.771004 -18.719999 -inf
-64.106003 -18.719999 -inf
-63.441002 -18.719999 -inf
-62.776001 -18.719999 -inf
-62.111 -18.719999 -inf
-61.445999 -18.719999 -69.911201
-60.780998 -18.719999 -66.654999
-60.116001 -18.719999 -65.638
-59.451 -18.719999 -64.964798
-58.785999 -18.719999 -63.000999
-58.120998 -18.719999 -61.7104
-57.456001 -18.719999 -61.271198
-56.791 -18.719999 -61.105598
-56.125999 -18.719999 -60.7402
-55.460999 -18.719999 -60.531399
-54.796001 -18.719999 -60.412601
-54.131001 -18.719999 -60.1534
-53.466 -18.719999 -60.079601
-52.800999 -18.719999 -60.315399
-52.136002 -18.719999 -60.4972
-51.471001 -18.719999 -60.538601
-50.806 -18.719999 -60.198399
-50.140999 -18.719999 -59.977001
-49.476002 -18.719999 -59.6908
-48.811001 -18.719999 -59.0644
-48.146 -18.719999 -56.7262
-47.480999 -18.719999 -57.176201
-46.816002 -18.719999 -56.938599
-46.151001 -18.719999 -56.4076
-45.486 -18.719999 -55.827999
-44.820999 -18.719999 -55.597599
-44.155998 -18.719999 -55.104401
-43.491001 -18.719999 -54.928001
-42.826 -18.719999 -54.663399
-42.160999 -18.719999 -54.456402
-41.495998 -18.719999 -54.1702
-40.831001 -18.719999 -53.9902
-40.166 -18.719999 -53.630199
-39.500999 -18.719999 -53.667999
-38.835999 -18.719999 -53.523998
-38.171001 -18.719999 -53.1982
-37.506001 -18.719999 -57.183399
-36.841 -18.719999 -57.183399
-36.175999 -18.719999 -57.062801
-35.511002 -18.719999 -57.115002
-34.846001 -18.719999 -57.6982
-34.181 -18.719999 -51.826599
-33.515999 -18.719999 -52.044399
-32.851002 -18.719999 -51.3946
-32.186001 -18.719999 -51.565601
-31.521 -18.719999 -51.545799
-30.856001 -18.719999 -51.362202
-30.191 -18.719999 -50.8312
-29.525999 -18.719999 -50.240799
-28.861 -18.719999 -50.112999
-28.195999 -18.719999 -49.738602
-27.531 -18.719999 -49.546001
-26.865999 -18.719999 -49.160801
-26.201 -18.719999 -48.638802
-25.535999 -18.719999 -48.167198
-24.871 -18.719999 -48.023201
-24.205999 -18.719999 -47.6614
-23.541 -18.719999 -47.506599
-22.875999 -18.719999 -47.117802
-22.211 -18.719999 -46.730801
-21.546 -18.719999 -46.552601
-20.881001 -18.719999 -46.273602
-20.216 -18.719999 -46.2052
-19.551001 -18.719999 -45.978401
-18.886 -18.719999 -45.823601
-18.221001 -18.719999 -45.445599
-17.556 -18.719999 -45.044201
-16.891001 -18.719999 -44.808399
-16.226 -18.719999 -44.599602
-15.561 -18.719999 -44.5564
-14.896 -18.719999 -44.550999
-14.231 -18.719999 -44.736401
-13.566 -18.719999 -44.605
-12.901 -18.719999 -44.194599
-12.236 -18.719999 -43.8004
-11.571 -18.719999 -43.0858
-10.906 -18.719999 -43.026402
-10.241 -18.719999 -42.974201
-9.5760002 -18.719999 -43.037201
-8.9110003 -18.719999 -42.614201
-8.2460003 -18.719999 -42.273998
-7.5809999 -18.719999 -42.110199
-6.9159999 -18.719999 -41.6782
-6.2509999 -18.719999 -41.323601
-5.586 -18.719999 -41.32
-4.921 -18.719999 -41.3578
-4.256 -18.719999 -41.005001
-3.5910001 -18.719999 -41.122002
-2.9260001 -18.719999 -40.636002
-2.2609999 -18.719999 -40.454201
-1.596 -18.719999 -40.142799
-0.93099999 -18.719999 -39.703602
-0.266 -18.719999 -39.397598
0.39899999 -18.719999 -39.278801
1.064 -18.719999 -39.192402
1.729 -18.719999 -38.990799
2.3940001 -18.719999 -38.697399
3.059 -18.719999 -38.466999
3.724 -18.719999 -38.297798
4.3889999 -18.719999 -38.063801
5.0539999 -18.719999 -37.683998
5.7189999 -18.719999 -37.264599
6.3839998 -18.719999 -37.372601
7.0489998 -18.719999 -36.9478
7.7140002 -18.719999 -37.003601
8.3789997 -18.719999 -36.289001
9.0439997 -18.719999 -36.019001
9.7089996 -18.719999 -35.9632
10.374 -18.719999 -35.630199
11.039 -18.719999 -35.6068
11.704 -18.719999 -34.991199
12.369 -18.719999 -34.9174
13.034 -18.719999 -34.974998
13.699 -18.719999 -34.645599
14.364 -18.719999 -34.076801
15.029 -18.719999 -34.006599
15.694 -18.719999 -33.859001
16.358999 -18.719999 -33.632198
17.024 -18.719999 -33.250599
17.688999 -18.719999 -33.292
18.354 -18.719999 -32.7934
19.018999 -18.719999 -32.4496
19.684 -18.719999 -32.012199
20.349001 -18.719999 -32.406399
21.014 -18.719999 -32.3848
21.679001 -18.719999 -32.0788
22.344 -18.719999 -31.742201
23.009001 -18.719999 -31.844801
23.674 -18.719999 -31.3048
24.339001 -18.719999 -31.306601
25.004 -18.719999 -30.944799
25.669001 -18.719999 -30.889
26.334 -18.719999 -30.6478
26.999001 -18.719999 -30.681999
27.664 -18.719999 -30.493
28.329 -18.719999 -31.5208
28.993999 -18.719999 -32.104
29.659 -18.719999 -32.3326
30.323999 -18.719999 -32.568401
30.989 -18.719999 -32.841999
31.653999 -18.719999 -33.3316
32.319 -18.719999 -33.927399
32.984001 -18.719999 -33.750999
33.648998 -18.719999 -34.242401
34.313999 -18.719999 -34.375599
34.979 -18.719999 -34.600601
35.644001 -18.719999 -34.597
36.308998 -18.719999 -34.944401
36.973999 -18.719999 -34.66
37.639 -18.719999 -34.924599
38.304001 -18.719999 -35.421398
38.969002 -18.719999 -35.903801
39.633999 -18.719999 -36.328602
40.299 -18.719999 -36.699402
40.964001 -18.719999 -36.8596
41.629002 -18.719999 -37.374401
42.293999 -18.719999 -37.475201
42.959 -18.719999 -38.0476
43.624001 -18.719999 -38.5588
44.289001 -18.719999 -39.145599
44.953999 -18.719999 -39.476799
45.618999 -18.719999 -39.9394
46.284 -18.719999 -40.484798
46.949001 -18.719999 -41.084202
47.613998 -18.719999 -41.175999
48.278999 -18.719999 -42.014801
48.944 -18.719999 -42.209202
49.609001 -18.719999 -42.9058
50.273998 -18.719999 -43.564602
50.938999 -18.719999 -43.687
51.604 -18.719999 -43.910198
52.269001 -18.719999 -44.250401
52.933998 -18.719999 -44.3242
53.598999 -18.719999 -43.9678
54.264 -18.719999 -44.347599
54.929001 -18.719999 -44.090199
55.594002 -18.719999 -44.5294
56.258999 -18.719999 -44.448399
56.924 -18.719999 -44.981201
57.589001 -18.719999 -45.6796
58.254002 -18.719999 -46.657001
58.918999 -18.719999 -47.7118
59.584 -18.719999 -48.854801
60.249001 -18.719999 -50.005001
60.914001 -18.719999 -51.142601
61.578999 -18.719999 -52.159599
62.243999 -18.719999 -53.280998
62.909 -18.719999 -54.3592
63.574001 -18.719999 -56.515598
64.238998 -18.719999 -inf
64.903999 -18.719999 -inf
65.569 -18.719999 -inf
66.234001 -18.719999 -inf
66.899002 -18.719999 -inf
67.564003 -18.719999 -inf
-69.426003 -18 -inf
-68.761002 -18 -inf
-68.096001 -18 -inf
-67.431 -18 -inf
-66.765999 -18 -inf
-66.100998 -18 -inf
-65.435997 -18 -inf
-64.771004 -18 -inf
-64.106003 -18 -inf
-63.441002 -18 -inf
-62.776001 -18 -inf
-62.111 -18 -inf
-61.445999 -18 -inf
-60.780998 -18 -67.167999
-60.116001 -18 -66.028603
-59.451 -18 -65.1772
-58.785999 -18 -63.393398
-58.120998 -18 -62.487999
-57.456001 -18 -61.551998
-56.791 -18 -61.0588
-56.125999 -18 -60.859001
-55.460999 -18 -60.623199
-54.796001 -18 -60.594398
-54.131001 -18 -60.257801
-53.466 -18 -60.056198
-52.800999 -18 -60.198399
-52.136002 -18 -60.288399
-51.471001 -18 -60.248798
-50.806 -18 -59.9734
-50.140999 -18 -59.840199
-49.476002 -18 -59.267799
-48.811001 -18 -58.446999
-48.146 -18 -57.318401
-47.480999 -18 -57.253601
-46.816002 -18 -56.8792
-46.151001 -18 -56.121399
-45.486 -18 -55.930599
-44.820999 -18 -55.6786
-44.155998 -18 -54.778599
-43.491001 -18 -54.920799
-42.826 -18 -54.6166
-42.160999 -18 -54.4132
-41.495998 -18 -54.137798
-40.831001 -18 -53.866001
-40.166 -18 -53.650002
-39.500999 -18 -53.695
-38.835999 -18 -65.233002
-38.171001 -18 -53.5312
-37.506001 -18 -53.599602
-36.841 -18 -53.2756
-36.175999 -18 -56.810799
-35.511002 -18 -56.9044
-34.846001 -18 -51.5242
-34.181 -18 -52.184799
-33.515999 -18 -52.1758
-32.851002 -18 -51.7528
-32.186001 -18 -51.160599
-31.521 -18 -51.157001
-30.856001 -18 -51.259602
-30.191 -18 -50.6422
-29.525999 -18 -50.195801
-28.861 -18 -49.967201
-28.195999 -18 -49.834
-27.531 -18 -49.2328
-26.865999 -18 -48.853001
-26.201 -18 -48.584801
-25.535999 -18 -48.3922
-24.871 -18 -47.697399
-24.205999 -18 -47.582199
-23.541 -18 -47.234798
-22.875999 -18 -46.792
-22.211 -18 -46.628201
-21.546 -18 -46.649799
-20.881001 -18 -46.309601
-20.216 -18 -46.208801
-19.551001 -18 -46.070202
-18.886 -18 -45.721001
-18.221001 -18 -45.4258
-17.556 -18 -45.089199
-16.891001 -18 -44.993801
-16.226 -18 -44.981201
-15.561 -18 -44.585201
-14.896 -18 -44.480801
-14.231 -18 -44.353001
-13.566 -18 -44.307999
-12.901 -18 -44.217999
-12.236 -18 -44.047001
-11.571 -18 -43.039001
-10.906 -18 -43.029999
-10.241 -18 -43.0336
-9.5760002 -18 -43.244202
-8.9110003 -18 -42.671799
-8.2460003 -18 -42.453999
-7.5809999 -18 -42.115601
-6.9159999 -18 -41.625999
-6.2509999 -18 -41.305599
-5.586 -18 -41.4226
-4.921 -18 -41.0158
-4.256 -18 -41.175999
-3.5910001 -18 -40.738602
-2.9260001 -18 -40.5784
-2.2609999 -18 -40.126598
-1.596 -18 -40.659401
-0.93099999 -18 -39.8512
-0.266 -18 -39.5812
0.39899999 -18 -39.933998
1.064 -18 -38.974602
1.729 -18 -39.07
2.3940001 -18 -38.434601
3.059 -18 -38.855801
3.724 -18 -37.964802
4.3889999 -18 -37.977402
5.0539999 -18 -37.6516
5.7189999 -18 -37.5364
6.3839998 -18 -37.176399
7.0489998 -18 -37.019798
7.7140002 -18 -36.991001
8.3789997 -18 -36.434799
9.0439997 -18 -36.036999
9.7089996 -18 -35.7598
10.374 -18 -35.479
11.039 -18 -35.169399
11.704 -18 -35.027199
12.369 -18 -35.200001
13.034 -18 -34.778801
13.699 -18 -34.2514
14.364 -18 -34.179401
15.029 -18 -34.476398
15.694 -18 -33.950802
16.358999 -18 -33.696999
17.024 -18 -33.569199
17.688999 -18 -33.5746
18.354 -18 -33.373001
19.018999 -18 -32.694401
19.684 -18 -32.175999
20.349001 -18 -32.289398
21.014 -18 -32.249802
21.679001 -18 -32.134602
22.344 -18 -31.7206
23.009001 -18 -31.941999
23.674 -18 -31.4884
24.339001 -18 -31.0294
25.004 -18 -30.7666
25.669001 -18 -30.8494
26.334 -18 -30.912399
26.999001 -18 -30.878201
27.664 -18 -30.296801
28.329 -18 -31.063601
28.993999 -18 -31.924
29.659 -18 -32.568401
30.323999 -18 -32.836601
30.989 -18 -33.347801
31.653999 -18 -33.430599
32.319 -18 -33.682598
32.984001 -18 -34.0858
33.648998 -18 -34.220798
34.313999 -18 -34.620399
34.979 -18 -34.721199
35.644001 -18 -35.2234
36.308998 -18 -35.297199
36.973999 -18 -34.667198
37.639 -18 -34.957001
38.304001 -18 -35.513199
38.969002 -18 -35.471802
39.633999 -18 -36.098202
40.299 -18 -36.9226
40.964001 -18 -37.243
41.629002 -18 -37.581402
42.293999 -18 -37.999001
42.959 -18 -38.3536
43.624001 -18 -38.837799
44.289001 -18 -39.190601
44.953999 -18 -39.709
45.618999 -18 -40.315601
46.284 -18 -40.774601
46.949001 -18 -41.347
47.613998 -18 -41.9212
48.278999 -18 -42.3568
48.944 -18 -43.155998
49.609001 -18 -43.488998
50.273998 -18 -43.449402
50.938999 -18 -43.483601
51.604 -18 -43.665401
52.269001 -18 -43.651001
52.933998 -18 -43.985802
53.598999 -18 -44.079399
54.264 -18 -44.041599
54.929001 -18 -44.394402
55.594002 -18 -44.408798
56.258999 -18 -44.389
56.924 -18 -44.7994
57.589001 -18 -45.848801
58.254002 -18 -46.748798
58.918999 -18 -47.799999
59.584 -18 -48.834999
60.249001 -18 -49.994202
60.914001 -18 -51.0886
61.578999 -18 -52.2118
62.243999 -18 -53.194599
62.909 -18 -54.3862
63.574001 -18 -56.188
64.238998 -18 -inf
64.903999 -18 -inf
65.569 -18 -inf
66.234001 -18 -inf
66.899002 -18 -inf
67.564003 -18 -inf
-69.426003 -17.280001 -inf
-68.761002 -17.280001 -inf
-68.096001 -17.280001 -inf
-67.431 -17.280001 -inf
-66.765999 -17.280001 -inf
-66.100998 -17.280001 -inf
-65.435997 -17.280001 -inf
