# .PCD v0.7 - Point Cloud Data file format
VERSION 0.7
FIELDS x y z
SIZE 4 4 4
TYPE F F F
COUNT 1 1 1
WIDTH 1769
HEIGHT 1
VIEWPOINT 0 0 0 1 0 0 0
POINTS 1769
DATA ascii
30.191 14.76 -35.3512
30.856001 14.76 -35.419601
31.521 14.76 -35.500599
32.186001 14.76 -35.9146
32.851002 14.76 -35.8228
33.515999 14.76 -36.3358
34.181 14.76 -36.4366
34.846001 14.76 -36.870399
35.511002 14.76 -36.904598
36.175999 14.76 -37.277199
36.841 14.76 -37.819
37.506001 14.76 -38.391399
38.171001 14.76 -38.366199
38.835999 14.76 -38.805401
39.500999 14.76 -38.974602
40.166 14.76 -39.579399
40.831001 14.76 -39.858398
41.495998 14.76 -40.367802
42.160999 14.76 -40.6828
42.826 14.76 -41.131001
43.491001 14.76 -41.834801
44.155998 14.76 -41.836601
44.820999 14.76 -42.310001
45.486 14.76 -42.866199
46.151001 14.76 -43.695999
46.816002 14.76 -43.678001
47.480999 14.76 -44.432201
48.146 14.76 -44.511398
48.811001 14.76 -44.9398
49.476002 14.76 -44.795799
50.140999 14.76 -45.076599
50.806 14.76 -44.9632
51.471001 14.76 -45.0298
52.136002 14.76 -45.0928
52.800999 14.76 -44.9776
53.466 14.76 -45.055
54.131001 14.76 -45.279999
54.796001 14.76 -45.355598
55.460999 14.76 -45.855999
56.125999 14.76 -46.734402
56.791 14.76 -48.0844
57.456001 14.76 -48.2122
58.120998 14.76 -48.955601
58.785999 14.76 -49.319199
59.451 14.76 -50.058998
60.116001 14.76 -50.030201
60.780998 14.76 -50.4226
61.445999 14.76 -50.899601
62.111 14.76 -51.288399
62.776001 14.76 -52.0966
63.441002 14.76 -52.274799
64.106003 14.76 -53.3494
64.771004 14.76 -54.499599
65.435997 14.76 -56.6758
66.100998 14.76 -inf
66.765999 14.76 -inf
67.431 14.76 -inf
68.096001 14.76 -inf
68.761002 14.76 -inf
69.426003 14.76 -inf
70.091003 14.76 -inf
-58.918999 15.48 -inf
-58.254002 15.48 -inf
-57.589001 15.48 -inf
-56.924 15.48 -inf
-56.258999 15.48 -inf
-55.594002 15.48 -inf
-54.929001 15.48 -inf
-54.264 15.48 -inf
-53.598999 15.48 -inf
-52.933998 15.48 -inf
-52.269001 15.48 -inf
-51.604 15.48 -75.3778
-50.938999 15.48 -70.728401
-50.273998 15.48 -70.192001
-49.609001 15.48 -68.903198
-48.944 15.48 -67.9888
-48.278999 15.48 -67.236397
-47.613998 15.48 -66.638802
-46.949001 15.48 -66.152802
-46.284 15.48 -65.589401
-45.618999 15.48 -65.011597
-44.953999 15.48 -64.4356
-44.289001 15.48 -63.611198
-43.624001 15.48 -63.179199
-42.959 15.48 -62.903801
-42.293999 15.48 -62.493401
-41.629002 15.48 -62.124401
-40.964001 15.48 -61.8004
-40.299 15.48 -61.472801
-39.633999 15.48 -60.9958
-38.969002 15.48 -60.707802
-38.304001 15.48 -60.490002
-37.639 15.48 -59.9734
-36.973999 15.48 -59.683601
-36.308998 15.48 -59.057201
-35.644001 15.48 -58.569401
-34.979 15.48 -57.9538
-34.313999 15.48 -57.6586
-33.648998 15.48 -56.8522
-32.984001 15.48 -55.666
-32.319 15.48 -55.239399
-31.653999 15.48 -54.6418
-30.989 15.48 -53.788601
-30.323999 15.48 -53.009201
-29.659 15.48 -52.3414
-28.993999 15.48 -50.9608
-28.329 15.48 -49.1446
-27.664 15.48 -48.602798
-26.999001 15.48 -48.755798
-26.334 15.48 -47.645199
-25.669001 15.48 -46.863998
-25.004 15.48 -46.763199
-24.339001 15.48 -45.9874
-23.674 15.48 -45.530201
-23.009001 15.48 -45.159401
-22.344 15.48 -44.7976
-21.679001 15.48 -44.610401
-21.014 15.48 -44.084801
-20.349001 15.48 -43.627602
-19.684 15.48 -43.458401
-19.018999 15.48 -42.8806
-18.354 15.48 -42.558399
-17.688999 15.48 -41.955399
-17.024 15.48 -41.519798
-16.358999 15.48 -41.1022
-15.694 15.48 -40.830399
-15.029 15.48 -40.319199
-14.364 15.48 -39.809799
-13.699 15.48 -39.3904
-13.034 15.48 -39.042999
-12.369 15.48 -38.4454
-11.704 15.48 -37.972
-11.039 15.48 -37.489601
-10.374 15.48 -37.399601
-9.7089996 15.48 -37.071999
-9.0439997 15.48 -36.443802
-8.3789997 15.48 -35.968601
-7.7140002 15.48 -35.610401
-7.0489998 15.48 -35.192799
-6.3839998 15.48 -34.998402
-5.7189999 15.48 -34.964199
-5.0539999 15.48 -34.548401
-4.3889999 15.48 -34.568199
-3.724 15.48 -34.357601
-3.059 15.48 -34.138
-2.3940001 15.48 -34.157799
-1.729 15.48 -34.012001
-1.064 15.48 -33.691601
-0.39899999 15.48 -33.295601
0.266 15.48 -33.2146
0.93099999 15.48 -32.8312
1.596 15.48 -32.494598
2.2609999 15.48 -32.084202
2.9260001 15.48 -32.033798
3.5910001 15.48 -31.9744
4.256 15.48 -31.909599
4.921 15.48 -31.9582
5.586 15.48 -31.672001
6.2509999 15.48 -31.486601
6.9159999 15.48 -36.472599
7.5809999 15.48 -31.1068
8.2460003 15.48 -30.887199
8.9110003 15.48 -31.096001
9.5760002 15.48 -31.0492
10.241 15.48 -31.072599
10.906 15.48 -30.9844
11.571 15.48 -31.006001
12.236 15.48 -31.742201
12.901 15.48 -36.395199
13.566 15.48 -36.395199
14.231 15.48 -32.136398
14.896 15.48 -32.284
15.561 15.48 -32.260601
16.226 15.48 -32.019402
16.891001 15.48 -31.686399
17.556 15.48 -31.792601
18.221001 15.48 -32.032001
18.886 15.48 -32.158001
19.551001 15.48 -32.105801
20.216 15.48 -32.311001
20.881001 15.48 -32.5378
21.546 15.48 -32.791599
22.211 15.48 -32.964401
22.875999 15.48 -33.2038
23.541 15.48 -33.174999
24.205999 15.48 -33.443199
24.871 15.48 -33.507999
25.535999 15.48 -34.076801
26.201 15.48 -34.256802
26.865999 15.48 -34.515999
27.531 15.48 -34.577202
28.195999 15.48 -34.719398
28.861 15.48 -34.987598
29.525999 15.48 -34.895802
30.191 15.48 -35.266602
30.856001 15.48 -35.358398
31.521 15.48 -35.781399
32.186001 15.48 -35.660801
32.851002 15.48 -36.033401
33.515999 15.48 -36.107201
34.181 15.48 -36.560799
34.846001 15.48 -36.82
35.511002 15.48 -36.940601
36.175999 15.48 -37.493198
36.841 15.48 -37.756001
37.506001 15.48 -38.2906
38.171001 15.48 -38.830601
38.835999 15.48 -38.998001
39.500999 15.48 -39.305801
40.166 15.48 -39.6478
40.831001 15.48 -39.935799
41.495998 15.48 -40.223801
42.160999 15.48 -40.648602
42.826 15.48 -41.402802
43.491001 15.48 -41.737598
44.155998 15.48 -42.007599
44.820999 15.48 -42.2686
45.486 15.48 -42.412601
46.151001 15.48 -43.5574
46.816002 15.48 -43.503399
47.480999 15.48 -44.280998
48.146 15.48 -44.446602
48.811001 15.48 -44.623001
49.476002 15.48 -44.869598
50.140999 15.48 -44.700401
50.806 15.48 -44.635601
51.471001 15.48 -44.923599
52.136002 15.48 -45.199001
52.800999 15.48 -45.0424
53.466 15.48 -45.368198
54.131001 15.48 -45.294399
54.796001 15.48 -45.328602
55.460999 15.48 -45.690399
56.125999 15.48 -46.698399
56.791 15.48 -47.695599
57.456001 15.48 -48.3652
58.120998 15.48 -48.6856
58.785999 15.48 -49.304798
59.451 15.48 -49.711601
60.116001 15.48 -50.122002
60.780998 15.48 -50.649399
61.445999 15.48 -50.719601
62.111 15.48 -51.009399
62.776001 15.48 -51.619598
63.441002 15.48 -52.472801
64.106003 15.48 -52.753601
64.771004 15.48 -54.415001
65.435997 15.48 -56.058399
66.100998 15.48 -inf
66.765999 15.48 -inf
67.431 15.48 -inf
68.096001 15.48 -inf
68.761002 15.48 -inf
69.426003 15.48 -inf
70.091003 15.48 -inf
-58.918999 16.200001 -inf
-58.254002 16.200001 -inf
-57.589001 16.200001 -inf
-56.924 16.200001 -inf
-56.258999 16.200001 -inf
-55.594002 16.200001 -inf
-54.929001 16.200001 -inf
-54.264 16.200001 -inf
-53.598999 16.200001 -inf
-52.933998 16.200001 -inf
-52.269001 16.200001 -inf
-51.604 16.200001 -75.3778
-50.938999 16.200001 -70.969597
-50.273998 16.200001 -70.796799
-49.609001 16.200001 -69.788803
-48.944 16.200001 -68.485603
-48.278999 16.200001 -67.443398
-47.613998 16.200001 -66.637001
-46.949001 16.200001 -65.647003
-46.284 16.200001 -65.8936
-45.618999 16.200001 -65.220398
-44.953999 16.200001 -64.464401
-44.289001 16.200001 -63.852402
-43.624001 16.200001 -63.236801
-42.959 16.200001 -62.711201
-42.293999 16.200001 -62.3908
-41.629002 16.200001 -62.3242
-40.964001 16.200001 -61.879601
-40.299 16.200001 -61.539398
-39.633999 16.200001 -61.1362
-38.969002 16.200001 -60.6646
-38.304001 16.200001 -60.236198
-37.639 16.200001 -59.833
-36.973999 16.200001 -59.6548
-36.308998 16.200001 -59.125599
-35.644001 16.200001 -58.636002
-34.979 16.200001 -58.065399
-34.313999 16.200001 -57.638802
-33.648998 16.200001 -56.632599
-32.984001 16.200001 -55.860401
-32.319 16.200001 -55.309601
-31.653999 16.200001 -54.724602
-30.989 16.200001 -53.766998
-30.323999 16.200001 -52.8256
-29.659 16.200001 -52.1092
-28.993999 16.200001 -50.23
-28.329 16.200001 -49.378601
-27.664 16.200001 -48.622601
-26.999001 16.200001 -48.550598
-26.334 16.200001 -47.8396
-25.669001 16.200001 -47.076401
-25.004 16.200001 -46.6516
-24.339001 16.200001 -45.906399
-23.674 16.200001 -45.746201
-23.009001 16.200001 -45.726398
-22.344 16.200001 -45.1576
-21.679001 16.200001 -44.660801
-21.014 16.200001 -44.446602
-20.349001 16.200001 -44.074001
-19.684 16.200001 -43.593399
-19.018999 16.200001 -42.774399
-18.354 16.200001 -42.382
-17.688999 16.200001 -41.899601
-17.024 16.200001 -41.824001
-16.358999 16.200001 -41.131001
-15.694 16.200001 -41.060799
-15.029 16.200001 -40.547798
-14.364 16.200001 -40.0942
-13.699 16.200001 -39.534401
-13.034 16.200001 -39.183399
-12.369 16.200001 -38.539001
-11.704 16.200001 -38.236599
-11.039 16.200001 -37.756001
-10.374 16.200001 -37.333
-9.7089996 16.200001 -37.035999
-9.0439997 16.200001 -36.632801
-8.3789997 16.200001 -36.306999
-7.7140002 16.200001 -35.8876
-7.0489998 16.200001 -35.497002
-6.3839998 16.200001 -35.252201
-5.7189999 16.200001 -35.295399
-5.0539999 16.200001 -34.894001
-4.3889999 16.200001 -34.985802
-3.724 16.200001 -34.6996
-3.059 16.200001 -34.6618
-2.3940001 16.200001 -34.377399
-1.729 16.200001 -34.245998
-1.064 16.200001 -33.927399
-0.39899999 16.200001 -33.660999
0.266 16.200001 -33.4342
0.93099999 16.200001 -33.468399
1.596 16.200001 -32.301998
2.2609999 16.200001 -32.278599
2.9260001 16.200001 -32.006802
3.5910001 16.200001 -31.6432
4.256 16.200001 -32.082401
4.921 16.200001 -32.084202
5.586 16.200001 -31.8736
6.2509999 16.200001 -31.614401
6.9159999 16.200001 -31.4722
7.5809999 16.200001 -31.454201
8.2460003 16.200001 -31.059999
8.9110003 16.200001 -31.085199
9.5760002 16.200001 -30.950199
10.241 16.200001 -31.348
10.906 16.200001 -31.1464
11.571 16.200001 -31.4254
12.236 16.200001 -31.8934
12.901 16.200001 -31.544201
13.566 16.200001 -39.408401
14.231 16.200001 -39.960999
14.896 16.200001 -39.960999
15.561 16.200001 -39.960999
16.226 16.200001 -32.406399
16.891001 16.200001 -31.9384
17.556 16.200001 -32.096802
18.221001 16.200001 -32.201199
18.886 16.200001 -32.190399
19.551001 16.200001 -32.301998
20.216 16.200001 -32.388401
20.881001 16.200001 -32.651199
21.546 16.200001 -32.854599
22.211 16.200001 -33.016602
22.875999 16.200001 -33.2794
23.541 16.200001 -33.257801
24.205999 16.200001 -33.4702
24.871 16.200001 -33.603401
25.535999 16.200001 -34.055199
26.201 16.200001 -34.4692
26.865999 16.200001 -34.701401
27.531 16.200001 -34.705002
28.195999 16.200001 -34.683399
28.861 16.200001 -34.847198
29.525999 16.200001 -34.931801
30.191 16.200001 -35.2216
30.856001 16.200001 -35.5798
31.521 16.200001 -35.700401
32.186001 16.200001 -35.9506
32.851002 16.200001 -35.9002
33.515999 16.200001 -36.3232
34.181 16.200001 -36.6814
34.846001 16.200001 -36.800201
35.511002 16.200001 -37.18
36.175999 16.200001 -37.352798
36.841 16.200001 -37.8694
37.506001 16.200001 -38.261799
38.171001 16.200001 -38.621799
38.835999 16.200001 -38.796398
39.500999 16.200001 -39.406601
40.166 16.200001 -39.5812
40.831001 16.200001 -40.011398
41.495998 16.200001 -40.342602
42.160999 16.200001 -40.713402
42.826 16.200001 -41.122002
43.491001 16.200001 -41.681801
44.155998 16.200001 -41.791599
44.820999 16.200001 -42.272202
45.486 16.200001 -42.477402
46.151001 16.200001 -42.835602
46.816002 16.200001 -43.237
47.480999 16.200001 -44.322399
48.146 16.200001 -44.650002
48.811001 16.200001 -44.945202
49.476002 16.200001 -44.956001
50.140999 16.200001 -44.8894
50.806 16.200001 -44.853401
51.471001 16.200001 -44.8102
52.136002 16.200001 -45.137798
52.800999 16.200001 -44.984798
53.466 16.200001 -45.361
54.131001 16.200001 -45.4762
54.796001 16.200001 -45.4762
55.460999 16.200001 -45.470798
56.125999 16.200001 -46.390598
56.791 16.200001 -47.6092
57.456001 16.200001 -48.574001
58.120998 16.200001 -48.676601
58.785999 16.200001 -49.061798
59.451 16.200001 -49.646801
60.116001 16.200001 -50.024799
60.780998 16.200001 -50.3092
61.445999 16.200001 -50.507198
62.111 16.200001 -50.888802
62.776001 16.200001 -51.416199
63.441002 16.200001 -51.911201
64.106003 16.200001 -52.5844
64.771004 16.200001 -53.610401
65.435997 16.200001 -55.549
66.100998 16.200001 -inf
66.765999 16.200001 -inf
67.431 16.200001 -inf
68.096001 16.200001 -inf
68.761002 16.200001 -inf
69.426003 16.200001 -inf
70.091003 16.200001 -inf
-58.918999 16.92 -inf
-58.254002 16.92 -inf
-57.589001 16.92 -inf
-56.924 16.92 -inf
-56.258999 16.92 -inf
-55.594002 16.92 -inf
-54.929001 16.92 -inf
-54.264 16.92 -inf
-53.598999 16.92 -inf
-52.933998 16.92 -inf
-52.269001 16.92 -inf
-51.604 16.92 -75.3778
-50.938999 16.92 -74.123199
-50.273998 16.92 -71.954201
-49.609001 16.92 -70.820198
-48.944 16.92 -68.860001
-48.278999 16.92 -68.138199
-47.613998 16.92 -66.617203
-46.949001 16.92 -65.682999
-46.284 16.92 -65.737
-45.618999 16.92 -65.265404
-44.953999 16.92 -64.846001
-44.289001 16.92 -64.626404
-43.624001 16.92 -64.183601
-42.959 16.92 -63.6022
-42.293999 16.92 -63.166599
-41.629002 16.92 -62.880402
-40.964001 16.92 -62.358398
-40.299 16.92 -61.728401
-39.633999 16.92 -61.308998
-38.969002 16.92 -61.0606
-38.304001 16.92 -60.529598
-37.639 16.92 -60.110199
-36.973999 16.92 -59.924801
-36.308998 16.92 -59.300201
-35.644001 16.92 -58.767399
-34.979 16.92 -58.342602
-34.313999 16.92 -57.653198
-33.648998 16.92 -56.717201
-32.984001 16.92 -55.9828
-32.319 16.92 -55.284401
-31.653999 16.92 -54.778599
-30.989 16.92 -54.0406
-30.323999 16.92 -51.824799
-29.659 16.92 -50.860001
-28.993999 16.92 -49.699001
-28.329 16.92 -49.218399
-27.664 16.92 -48.716202
-26.999001 16.92 -48.2896
-26.334 16.92 -47.479599
-25.669001 16.92 -47.259998
-25.004 16.92 -46.871201
-24.339001 16.92 -46.262798
-23.674 16.92 -45.978401
-23.009001 16.92 -45.787601
-22.344 16.92 -45.305199
-21.679001 16.92 -44.768799
-21.014 16.92 -44.452
-20.349001 16.92 -43.8274
-19.684 16.92 -43.492599
-19.018999 16.92 -42.6502
-18.354 16.92 -42.390999
-17.688999 16.92 -41.877998
-17.024 16.92 -41.714199
-16.358999 16.92 -41.458599
-15.694 16.92 -41.033798
-15.029 16.92 -40.736801
-14.364 16.92 -40.128399
-13.699 16.92 -39.511002
-13.034 16.92 -39.268002
-12.369 16.92 -38.7244
-11.704 16.92 -38.324799
-11.039 16.92 -38.033199
-10.374 16.92 -37.584999
-9.7089996 16.92 -37.196201
-9.0439997 16.92 -36.791199
-8.3789997 16.92 -36.546398
-7.7140002 16.92 -36.046001
-7.0489998 16.92 -35.302601
-6.3839998 16.92 -35.282799
-5.7189999 16.92 -35.2738
-5.0539999 16.92 -35.041599
-4.3889999 16.92 -34.848999
-3.724 16.92 -34.993
-3.059 16.92 -34.894001
-2.3940001 16.92 -34.6726
-1.729 16.92 -34.515999
-1.064 16.92 -33.813999
-0.39899999 16.92 -33.898602
0.266 16.92 -33.747398
0.93099999 16.92 -34.103802
1.596 16.92 -33.936401
2.2609999 16.92 -33.590801
2.9260001 16.92 -33.682598
3.5910001 16.92 -33.1894
4.256 16.92 -32.1544
4.921 16.92 -31.959999
5.586 16.92 -31.978001
6.2509999 16.92 -31.7512
6.9159999 16.92 -31.646799
7.5809999 16.92 -31.681
8.2460003 16.92 -31.7728
8.9110003 16.92 -31.2202
9.5760002 16.92 -31.492001
10.241 16.92 -31.087
10.906 16.92 -31.222
11.571 16.92 -31.357
12.236 16.92 -32.032001
12.901 16.92 -31.7386
13.566 16.92 -31.430799
14.231 16.92 -32.125599
14.896 16.92 -32.377602
15.561 16.92 -32.300201
16.226 16.92 -32.352402
16.891001 16.92 -32.2714
17.556 16.92 -32.390202
18.221001 16.92 -32.370399
18.886 16.92 -32.377602
19.551001 16.92 -32.429798
20.216 16.92 -32.444199
20.881001 16.92 -32.516201
21.546 16.92 -32.806
22.211 16.92 -33.157001
22.875999 16.92 -33.313599
23.541 16.92 -33.3694
24.205999 16.92 -33.403599
24.871 16.92 -33.374802
25.535999 16.92 -33.868
26.201 16.92 -34.492599
26.865999 16.92 -35.011002
27.531 16.92 -34.899399
28.195999 16.92 -34.676201
28.861 16.92 -34.793201
29.525999 16.92 -35.117199
30.191 16.92 -35.259399
30.856001 16.92 -35.716599
31.521 16.92 -35.500599
32.186001 16.92 -36.164799
32.851002 16.92 -36.026199
33.515999 16.92 -36.499599
34.181 16.92 -36.598598
34.846001 16.92 -37.118801
35.511002 16.92 -37.1908
36.175999 16.92 -37.300598
36.841 16.92 -37.590401
37.506001 16.92 -38.078201
38.171001 16.92 -38.6758
38.835999 16.92 -38.769402
39.500999 16.92 -39.127602
40.166 16.92 -39.771999
40.831001 16.92 -40.034801
41.495998 16.92 -40.257999
42.160999 16.92 -40.711601
42.826 16.92 -41.264198
43.491001 16.92 -41.611599
44.155998 16.92 -42.005798
44.820999 16.92 -42.182201
45.486 16.92 -42.355
46.151001 16.92 -42.5746
46.816002 16.92 -43.010201
47.480999 16.92 -44.0578
48.146 16.92 -44.457401
48.811001 16.92 -44.560001
49.476002 16.92 -44.848
50.140999 16.92 -44.815601
50.806 16.92 -44.9524
51.471001 16.92 -44.7328
52.136002 16.92 -44.910999
52.800999 16.92 -44.961399
53.466 16.92 -45.056801
54.131001 16.92 -45.112598
54.796001 16.92 -45.517601
55.460999 16.92 -45.8092
56.125999 16.92 -46.198002
56.791 16.92 -47.450802
57.456001 16.92 -48.16
58.120998 16.92 -48.611801
58.785999 16.92 -49.328201
59.451 16.92 -49.376801
60.116001 16.92 -49.959999
60.780998 16.92 -50.431599
61.445999 16.92 -50.341599
62.111 16.92 -51.059799
62.776001 16.92 -51.682598
63.441002 16.92 -51.7924
64.106003 16.92 -52.1758
64.771004 16.92 -53.5312
65.435997 16.92 -54.827202
66.100998 16.92 -55.936001
66.765999 16.92 -inf
67.431 16.92 -inf
68.096001 16.92 -inf
68.761002 16.92 -inf
69.426003 16.92 -inf
70.091003 16.92 -inf
-58.918999 17.639999 -inf
-58.254002 17.639999 -inf
-57.589001 17.639999 -inf
-56.924 17.639999 -inf
-56.258999 17.639999 -inf
-55.594002 17.639999 -inf
-54.929001 17.639999 -inf
-54.264 17.639999 -inf
-53.598999 17.639999 -inf
-52.933998 17.639999 -inf
-52.269001 17.639999 -inf
-51.604 17.639999 -75.273399
-50.938999 17.639999 -74.852203
-50.273998 17.639999 -73.017998
-49.609001 17.639999 -71.376404
-48.944 17.639999 -69.405403
-48.278999 17.639999 -68.152603
-47.613998 17.639999 -66.374199
-46.949001 17.639999 -65.537201
-46.284 17.639999 -65.3284
-45.618999 17.639999 -65.029602
-44.953999 17.639999 -64.829803
-44.289001 17.639999 -64.505798
-43.624001 17.639999 -64.135002
-42.959 17.639999 -63.816399
-42.293999 17.639999 -63.442001
-41.629002 17.639999 -63.044201
-40.964001 17.639999 -62.7994
-40.299 17.639999 -61.854401
-39.633999 17.639999 -61.337799
-38.969002 17.639999 -61.082199
-38.304001 17.639999 -60.491798
-37.639 17.639999 -60.2686
-36.973999 17.639999 -59.7934
-36.308998 17.639999 -59.251598
-35.644001 17.639999 -58.812401
-34.979 17.639999 -58.3372
-34.313999 17.639999 -57.471401
-33.648998 17.639999 -56.7262
-32.984001 17.639999 -55.9342
-32.319 17.639999 -55.194401
-31.653999 17.639999 -54.699402
-30.989 17.639999 -53.848
-30.323999 17.639999 -51.538601
-29.659 17.639999 -50.445999
-28.993999 17.639999 -48.955601
-28.329 17.639999 -48.8134
-27.664 17.639999 -47.940399
-26.999001 17.639999 -47.767601
-26.334 17.639999 -47.412998
-25.669001 17.639999 -47.015202
-25.004 17.639999 -46.833401
-24.339001 17.639999 -46.669601
-23.674 17.639999 -46.428398
-23.009001 17.639999 -45.980202
-22.344 17.639999 -45.517601
-21.679001 17.639999 -45.1432
-21.014 17.639999 -44.6572
-20.349001 17.639999 -43.8148
-19.684 17.639999 -43.206402
-19.018999 17.639999 -42.347801
-18.354 17.639999 -41.982399
-17.688999 17.639999 -41.841999
-17.024 17.639999 -41.8438
-16.358999 17.639999 -41.563
-15.694 17.639999 -41.161598
-15.029 17.639999 -40.8466
-14.364 17.639999 -40.033001
-13.699 17.639999 -39.649601
-13.034 17.639999 -39.4534
-12.369 17.639999 -38.9692
-11.704 17.639999 -38.414799
-11.039 17.639999 -38.186199
-10.374 17.639999 -37.862202
-9.7089996 17.639999 -37.514801
-9.0439997 17.639999 -37.248402
-8.3789997 17.639999 -36.893799
-7.7140002 17.639999 -36.429401
-7.0489998 17.639999 -35.667999
-6.3839998 17.639999 -35.4772
-5.7189999 17.639999 -35.255798
-5.0539999 17.639999 -35.115398
-4.3889999 17.639999 -34.910198
-3.724 17.639999 -35.050598
-3.059 17.639999 -35.014599
-2.3940001 17.639999 -34.7374
-1.729 17.639999 -34.744598
-1.064 17.639999 -34.6978
-0.39899999 17.639999 -34.463799
0.266 17.639999 -33.938202
0.93099999 17.639999 -34.381001
1.596 17.639999 -34.177601
2.2609999 17.639999 -34.274799
2.9260001 17.639999 -33.563801
3.5910001 17.639999 -33.057999
4.256 17.639999 -32.262402
4.921 17.639999 -40.2076
5.586 17.639999 -32.327202
6.2509999 17.639999 -32.071602
6.9159999 17.639999 -32.2696
7.5809999 17.639999 -31.934799
8.2460003 17.639999 -31.990601
8.9110003 17.639999 -32.073399
9.5760002 17.639999 -31.844801
10.241 17.639999 -31.5532
10.906 17.639999 -31.594601
11.571 17.639999 -31.716999
12.236 17.639999 -32.032001
12.901 17.639999 -32.2444
13.566 17.639999 -31.857401
14.231 17.639999 -32.260601
14.896 17.639999 -32.404598
15.561 17.639999 -inf
16.226 17.639999 -inf
16.891001 17.639999 -inf
17.556 17.639999 -inf
18.221001 17.639999 -32.375801
18.886 17.639999 -32.489201
19.551001 17.639999 -32.544998
20.216 17.639999 -32.672798
20.881001 17.639999 -32.746601
21.546 17.639999 -33.182201
22.211 17.639999 -33.3964
22.875999 17.639999 -33.365799
23.541 17.639999 -33.466599
24.205999 17.639999 -33.455799
24.871 17.639999 -33.3046
25.535999 17.639999 -34.1632
26.201 17.639999 -34.816601
26.865999 17.639999 -34.971401
27.531 17.639999 -34.987598
28.195999 17.639999 -34.768002
28.861 17.639999 -35.0308
29.525999 17.639999 -35.344002
30.191 17.639999 -35.716599
30.856001 17.639999 -35.666199
31.521 17.639999 -35.9398
32.186001 17.639999 -36.3232
32.851002 17.639999 -36.733601
33.515999 17.639999 -36.814602
34.181 17.639999 -36.733601
34.846001 17.639999 -37.4464
35.511002 17.639999 -37.226799
36.175999 17.639999 -37.847801
36.841 17.639999 -37.637199
37.506001 17.639999 -37.840599
38.171001 17.639999 -38.362598
38.835999 17.639999 -39.042999
39.500999 17.639999 -39.343601
40.166 17.639999 -39.4156
40.831001 17.639999 -40.113998
41.495998 17.639999 -40.582001
42.160999 17.639999 -41.1166
42.826 17.639999 -41.2174
43.491001 17.639999 -41.554001
44.155998 17.639999 -41.734001
44.820999 17.639999 -41.757401
45.486 17.639999 -41.969799
46.151001 17.639999 -42.3442
46.816002 17.639999 -42.965199
47.480999 17.639999 -43.7374
48.146 17.639999 -44.153198
48.811001 17.639999 -44.5546
49.476002 17.639999 -44.689602
50.140999 17.639999 -44.902
50.806 17.639999 -45.252998
51.471001 17.639999 -44.7472
52.136002 17.639999 -45.123402
52.800999 17.639999 -45.1558
53.466 17.639999 -45.542801
54.131001 17.639999 -45.3358
54.796001 17.639999 -45.546398
55.460999 17.639999 -45.485199
56.125999 17.639999 -45.942402
56.791 17.639999 -46.732601
57.456001 17.639999 -48.039398
58.120998 17.639999 -48.511002
58.785999 17.639999 -48.944801
59.451 17.639999 -49.618
60.116001 17.639999 -49.9384
60.780998 17.639999 -51.157001
61.445999 17.639999 -50.802399
62.111 17.639999 -50.543201
62.776001 17.639999 -51.057999
63.441002 17.639999 -51.380199
64.106003 17.639999 -51.965199
64.771004 17.639999 -53.009201
65.435997 17.639999 -54.380798
66.100998 17.639999 -55.477001
66.765999 17.639999 -inf
67.431 17.639999 -inf
68.096001 17.639999 -inf
68.761002 17.639999 -inf
69.426003 17.639999 -inf
70.091003 17.639999 -inf
-58.918999 18.360001 -inf
-58.254002 18.360001 -inf
-57.589001 18.360001 -inf
-56.924 18.360001 -inf
-56.258999 18.360001 -inf
-55.594002 18.360001 -inf
-54.929001 18.360001 -inf
-54.264 18.360001 -inf
-53.598999 18.360001 -inf
-52.933998 18.360001 -inf
-52.269001 18.360001 -inf
-51.604 18.360001 -inf
-50.938999 18.360001 -74.879204
-50.273998 18.360001 -73.403198
-49.609001 18.360001 -71.853401
-48.944 18.360001 -69.839203
-48.278999 18.360001 -68.498199
-47.613998 18.360001 -66.410202
-46.949001 18.360001 -65.333801
-46.284 18.360001 -65.394997
-45.618999 18.360001 -65.341003
-44.953999 18.360001 -65.045799
-44.289001 18.360001 -64.4086
-43.624001 18.360001 -64.048599
-42.959 18.360001 -63.686798
-42.293999 18.360001 -63.249401
-41.629002 18.360001 -62.966801
-40.964001 18.360001 -62.7868
-40.299 18.360001 -62.270199
-39.633999 18.360001 -61.681599
-38.969002 18.360001 -61.125401
-38.304001 18.360001 -60.601601
-37.639 18.360001 -60.319
-36.973999 18.360001 -59.899601
-36.308998 18.360001 -59.354198
-35.644001 18.360001 -58.9366
-34.979 18.360001 -58.4128
-34.313999 18.360001 -57.611801
-33.648998 18.360001 -56.6506
-32.984001 18.360001 -55.644402
-32.319 18.360001 -54.8722
-31.653999 18.360001 -54.483398
-30.989 18.360001 -53.534801
-30.323999 18.360001 -50.923
-29.659 18.360001 -50.528801
-28.993999 18.360001 -49.083401
-28.329 18.360001 -48.9412
-27.664 18.360001 -48.564999
-26.999001 18.360001 -48.113201
-26.334 18.360001 -47.7514
-25.669001 18.360001 -47.375198
-25.004 18.360001 -47.229401
-24.339001 18.360001 -47.053001
-23.674 18.360001 -46.8046
-23.009001 18.360001 -46.557999
-22.344 18.360001 -46.286201
-21.679001 18.360001 -45.920799
-21.014 18.360001 -45.109001
-20.349001 18.360001 -44.523998
-19.684 18.360001 -43.499802
-19.018999 18.360001 -42.337002
-18.354 18.360001 -42.193001
-17.688999 18.360001 -42.014801
-17.024 18.360001 -41.9212
-16.358999 18.360001 -41.816799
-15.694 18.360001 -41.325401
-15.029 18.360001 -40.940201
-14.364 18.360001 -40.007801
-13.699 18.360001 -39.5578
-13.034 18.360001 -39.285999
-12.369 18.360001 -38.9566
-11.704 18.360001 -38.375198
-11.039 18.360001 -38.135799
-10.374 18.360001 -38.078201
-9.7089996 18.360001 -37.885601
-9.0439997 18.360001 -37.532799
-8.3789997 18.360001 -37.248402
-7.7140002 18.360001 -36.562599
-7.0489998 18.360001 -36.1306
-6.3839998 18.360001 -35.716599
-5.7189999 18.360001 -35.435799
-5.0539999 18.360001 -35.318802
-4.3889999 18.360001 -35.118999
-3.724 18.360001 -35.1064
-3.059 18.360001 -34.969601
-2.3940001 18.360001 -34.785999
-1.729 18.360001 -35.003799
-1.064 18.360001 -34.894001
-0.39899999 18.360001 -34.6366
0.266 18.360001 -34.256802
0.93099999 18.360001 -34.409801
1.596 18.360001 -33.819401
2.2609999 18.360001 -33.632198
2.9260001 18.360001 -33.5476
3.5910001 18.360001 -33.081402
4.256 18.360001 -32.620602
4.921 18.360001 -40.2076
5.586 18.360001 -32.751999
6.2509999 18.360001 -32.904999
6.9159999 18.360001 -32.656601
7.5809999 18.360001 -32.656601
8.2460003 18.360001 -32.464001
8.9110003 18.360001 -32.112999
9.5760002 18.360001 -32.381199
10.241 18.360001 -32.311001
10.906 18.360001 -32.418999
11.571 18.360001 -32.814999
12.236 18.360001 -32.584599
12.901 18.360001 -32.748402
13.566 18.360001 -32.676399
14.231 18.360001 -32.707001
14.896 18.360001 -32.595402
15.561 18.360001 -32.723202
16.226 18.360001 -32.611599
16.891001 18.360001 -32.633202
17.556 18.360001 -32.456799
18.221001 18.360001 -32.480202
18.886 18.360001 -32.571999
19.551001 18.360001 -32.591801
20.216 18.360001 -32.7808
20.881001 18.360001 -32.852798
21.546 18.360001 -33.027401
22.211 18.360001 -33.313599
22.875999 18.360001 -33.400002
23.541 18.360001 -33.538601
24.205999 18.360001 -33.518799
24.871 18.360001 -33.606998
25.535999 18.360001 -33.909401
26.201 18.360001 -34.834599
26.865999 18.360001 -34.8652
27.531 18.360001 -34.9426
28.195999 18.360001 -34.717602
28.861 18.360001 -35.077599
29.525999 18.360001 -35.252201
30.191 18.360001 -35.6824
30.856001 18.360001 -35.817402
31.521 18.360001 -36.047798
32.186001 18.360001 -36.2584
32.851002 18.360001 -37.001801
33.515999 18.360001 -37.0144
34.181 18.360001 -36.901001
34.846001 18.360001 -36.8218
35.511002 18.360001 -37.120602
36.175999 18.360001 -37.527401
36.841 18.360001 -37.649799
37.506001 18.360001 -38.169998
38.171001 18.360001 -38.5606
38.835999 18.360001 -39.4282
39.500999 18.360001 -39.471401
40.166 18.360001 -39.865601
40.831001 18.360001 -39.950199
41.495998 18.360001 -40.779999
42.160999 18.360001 -41.235401
42.826 18.360001 -41.3218
43.491001 18.360001 -41.4226
44.155998 18.360001 -41.661999
44.820999 18.360001 -41.464001
45.486 18.360001 -41.926601
46.151001 18.360001 -42.239799
46.816002 18.360001 -42.916599
47.480999 18.360001 -43.296398
48.146 18.360001 -43.530399
48.811001 18.360001 -44.079399
49.476002 18.360001 -44.902
50.140999 18.360001 -44.621201
50.806 18.360001 -45.0154
51.471001 18.360001 -44.790401
52.136002 18.360001 -44.981201
52.800999 18.360001 -45.046001
53.466 18.360001 -45.209801
54.131001 18.360001 -45.236801
54.796001 18.360001 -45.409599
55.460999 18.360001 -45.6436
56.125999 18.360001 -45.8596
56.791 18.360001 -46.477001
57.456001 18.360001 -47.9944
58.120998 18.360001 -48.386799
58.785999 18.360001 -48.845798
59.451 18.360001 -49.4632
60.116001 18.360001 -49.752998
60.780998 18.360001 -50.175999
61.445999 18.360001 -50.391998
62.111 18.360001 -50.750198
62.776001 18.360001 -51.2416
63.441002 18.360001 -51.931
64.106003 18.360001 -52.0732
64.771004 18.360001 -52.760799
65.435997 18.360001 -53.929001
66.100998 18.360001 -55.068401
66.765999 18.360001 -56.362598
67.431 18.360001 -inf
68.096001 18.360001 -inf
68.761002 18.360001 -inf
69.426003 18.360001 -inf
70.091003 18.360001 -inf
-58.918999 19.08 -inf
-58.254002 19.08 -inf
-57.589001 19.08 -inf
-56.924 19.08 -inf
-56.258999 19.08 -inf
-55.594002 19.08 -inf
-54.929001 19.08 -inf
-54.264 19.08 -inf
-53.598999 19.08 -inf
-52.933998 19.08 -inf
-52.269001 19.08 -inf
-51.604 19.08 -inf
-50.938999 19.08 -74.853996
-50.273998 19.08 -73.271797
-49.609001 19.08 -72.378998
-48.944 19.08 -70.856201
-48.278999 19.08 -69.007599
-47.613998 19.08 -67.526199
-46.949001 19.08 -65.852203
-46.284 19.08 -65.351799
-45.618999 19.08 -65.004402
-44.953999 19.08 -65.067398
-44.289001 19.08 -64.480598
-43.624001 19.08 -64.201599
-42.959 19.08 -63.9478
-42.293999 19.08 -63.4744
-41.629002 19.08 -63.164799
-40.964001 19.08 -62.480801
-40.299 19.08 -62.347599
-39.633999 19.08 -61.667198
-38.969002 19.08 -61.002998
-38.304001 19.08 -60.581799
-37.639 19.08 -60.4072
-36.973999 19.08 -60.009399
-36.308998 19.08 -59.365002
-35.644001 19.08 -58.8232
-34.979 19.08 -58.178799
-34.313999 19.08 -57.547001
-33.648998 19.08 -56.5984
-32.984001 19.08 -55.6408
-32.319 19.08 -55
-31.653999 19.08 -54.767799
-30.989 19.08 -53.500599
-30.323999 19.08 -51.180401
-29.659 19.08 -50.338001
-28.993999 19.08 -48.744999
-28.329 19.08 -48.458801
-27.664 19.08 -48.255402
-26.999001 19.08 -48.051998
-26.334 19.08 -47.8288
-25.669001 19.08 -47.625401
-25.004 19.08 -47.395
-24.339001 19.08 -47.3302
-23.674 19.08 -46.863998
-23.009001 19.08 -46.595798
-22.344 19.08 -45.760601
-21.679001 19.08 -45.362801
-21.014 19.08 -44.903801
-20.349001 19.08 -44.230598
-19.684 19.08 -43.733799
-19.018999 19.08 -42.788799
-18.354 19.08 -42.072399
-17.688999 19.08 -41.986
-17.024 19.08 -41.863602
-16.358999 19.08 -41.7682
-15.694 19.08 -41.532398
-15.029 19.08 -40.915001
-14.364 19.08 -40.331799
-13.699 19.08 -39.638802
-13.034 19.08 -39.4552
-12.369 19.08 -39.208599
-11.704 19.08 -38.7244
-11.039 19.08 -38.466999
-10.374 19.08 -38.4706
-9.7089996 19.08 -38.042198
-9.0439997 19.08 -37.505798
-8.3789997 19.08 -37.023399
-7.7140002 19.08 -36.479801
-7.0489998 19.08 -36.339401
-6.3839998 19.08 -35.7616
-5.7189999 19.08 -35.673401
-5.0539999 19.08 -35.523998
-4.3889999 19.08 -35.423199
-3.724 19.08 -35.397999
-3.059 19.08 -35.074001
-2.3940001 19.08 -34.938999
-1.729 19.08 -36.2314
-1.064 19.08 -34.782398
-0.39899999 19.08 -34.6474
0.266 19.08 -34.624001
0.93099999 19.08 -34.8922
1.596 19.08 -34.539398
2.2609999 19.08 -33.857201
2.9260001 19.08 -33.480999
3.5910001 19.08 -33.029202
4.256 19.08 -32.906799
4.921 19.08 -32.442402
5.586 19.08 -32.6008
6.2509999 19.08 -33.004002
6.9159999 19.08 -32.867199
7.5809999 19.08 -32.257
8.2460003 19.08 -32.618801
8.9110003 19.08 -32.746601
9.5760002 19.08 -32.741199
10.241 19.08 -32.687199
10.906 19.08 -32.751999
11.571 19.08 -32.874401
12.236 19.08 -32.683601
12.901 19.08 -32.8834
13.566 19.08 -32.941002
14.231 19.08 -32.975201
14.896 19.08 -32.8582
15.561 19.08 -32.741199
16.226 19.08 -32.611599
16.891001 19.08 -32.669201
17.556 19.08 -32.557598
18.221001 19.08 -32.510799
18.886 19.08 -32.527
19.551001 19.08 -32.651199
20.216 19.08 -32.816799
20.881001 19.08 -32.951801
21.546 19.08 -33.0868
22.211 19.08 -33.338799
22.875999 19.08 -33.515202
23.541 19.08 -33.590801
24.205999 19.08 -33.7006
24.871 19.08 -33.886002
25.535999 19.08 -34.197399
26.201 19.08 -34.831001
26.865999 19.08 -34.886799
27.531 19.08 -35.02
28.195999 19.08 -34.8508
28.861 19.08 -35.153198
29.525999 19.08 -35.023602
30.191 19.08 -35.2738
30.856001 19.08 -35.749001
31.521 19.08 -36.224201
32.186001 19.08 -36.396999
32.851002 19.08 -37.021599
33.515999 19.08 -37.034199
34.181 19.08 -36.765999
34.846001 19.08 -36.728199
35.511002 19.08 -37.082802
36.175999 19.08 -37.660599
36.841 19.08 -37.725399
37.506001 19.08 -38.1772
38.171001 19.08 -38.389599
38.835999 19.08 -38.888199
39.500999 19.08 -39.282398
40.166 19.08 -39.5938
40.831001 19.08 -39.971802
41.495998 19.08 -40.438
42.160999 19.08 -41.246201
42.826 19.08 -41.532398
43.491001 19.08 -41.406399
44.155998 19.08 -41.418999
44.820999 19.08 -41.4226
45.486 19.08 -41.899601
46.151001 19.08 -42.315399
46.816002 19.08 -42.499001
47.480999 19.08 -42.9958
48.146 19.08 -43.397202
48.811001 19.08 -43.782398
49.476002 19.08 -44.232399
50.140999 19.08 -44.730999
50.806 19.08 -45.148602
51.471001 19.08 -45.316002
52.136002 19.08 -45.260201
52.800999 19.08 -45.0676
53.466 19.08 -45.290798
54.131001 19.08 -45.299801
54.796001 19.08 -45.382599
55.460999 19.08 -45.805599
56.125999 19.08 -46.034199
56.791 19.08 -46.437401
57.456001 19.08 -47.672199
58.120998 19.08 -48.547001
58.785999 19.08 -48.881802
59.451 19.08 -49.4146
60.116001 19.08 -49.626999
60.780998 19.08 -50.0896
61.445999 19.08 -50.445999
62.111 19.08 -50.638599
62.776001 19.08 -50.914001
63.441002 19.08 -51.616001
64.106003 19.08 -52.170399
64.771004 19.08 -52.7752
65.435997 19.08 -53.667999
66.100998 19.08 -54.7066
66.765999 19.08 -55.700199
67.431 19.08 -inf
68.096001 19.08 -inf
68.761002 19.08 -inf
69.426003 19.08 -inf
70.091003 19.08 -inf
-58.918999 19.799999 -inf
-58.254002 19.799999 -inf
-57.589001 19.799999 -inf
-56.924 19.799999 -inf
-56.258999 19.799999 -inf
-55.594002 19.799999 -inf
-54.929001 19.799999 -inf
-54.264 19.799999 -inf
-53.598999 19.799999 -inf
-52.933998 19.799999 -inf
-52.269001 19.799999 -inf
-51.604 19.799999 -inf
-50.938999 19.799999 -74.3302
-50.273998 19.799999 -73.628197
-49.609001 19.799999 -72.969398
-48.944 19.799999 -71.628403
-48.278999 19.799999 -69.815804
-47.613998 19.799999 -68.010399
-46.949001 19.799999 -66.784599
-46.284 19.799999 -65.436401
-45.618999 19.799999 -64.873001
-44.953999 19.799999 -64.7146
-44.289001 19.799999 -64.309601
-43.624001 19.799999 -63.9856
-42.959 19.799999 -63.868599
-42.293999 19.799999 -63.427601
-41.629002 19.799999 -63.1558
-40.964001 19.799999 -62.655399
-40.299 19.799999 -62.479
-39.633999 19.799999 -61.843601
-38.969002 19.799999 -61.0462
-38.304001 19.799999 -60.6394
-37.639 19.799999 -60.362202
-36.973999 19.799999 -59.814999
-36.308998 19.799999 -59.104
-35.644001 19.799999 -58.371399
-34.979 19.799999 -57.833199
-34.313999 19.799999 -57.304001
-33.648998 19.799999 -56.602001
-32.984001 19.799999 -55.7938
-32.319 19.799999 -55.239399
-31.653999 19.799999 -54.481602
-30.989 19.799999 -53.137001
-30.323999 19.799999 -50.1436
-29.659 19.799999 -50.060799
-28.993999 19.799999 -48.8764
-28.329 19.799999 -48.282398
-27.664 19.799999 -48.433601
-26.999001 19.799999 -48.1726
-26.334 19.799999 -48.102402
-25.669001 19.799999 -48.165401
-25.004 19.799999 -47.602001
-24.339001 19.799999 -47.188
-23.674 19.799999 -46.775799
-23.009001 19.799999 -46.234001
-22.344 19.799999 -45.701199
-21.679001 19.799999 -44.848
-21.014 19.799999 -44.6068
-20.349001 19.799999 -43.829201
-19.684 19.799999 -43.514198
-19.018999 19.799999 -42.468399
-18.354 19.799999 -42.097599
-17.688999 19.799999 -42.0616
-17.024 19.799999 -41.7826
-16.358999 19.799999 -41.687199
-15.694 19.799999 -41.586399
-15.029 19.799999 -41.008598
-14.364 19.799999 -40.317402
-13.699 19.799999 -39.743198
-13.034 19.799999 -39.424599
-12.369 19.799999 -39.239201
-11.704 19.799999 -39.003399
-11.039 19.799999 -38.7766
-10.374 19.799999 -38.4958
-9.7089996 19.799999 -37.873001
-9.0439997 19.799999 -37.207001
-8.3789997 19.799999 -36.7714
-7.7140002 19.799999 -36.634602
-7.0489998 19.799999 -36.765999
-6.3839998 19.799999 -36.1558
-5.7189999 19.799999 -36.211601
-5.0539999 19.799999 -35.910999
-4.3889999 19.799999 -35.583401
-3.724 19.799999 -35.4664
-3.059 19.799999 -34.989399
-2.3940001 19.799999 -34.982201
-1.729 19.799999 -35.075802
-1.064 19.799999 -35.178398
-0.39899999 19.799999 -35.205399
0.266 19.799999 -35.284599
0.93099999 19.799999 -34.687
1.596 19.799999 -34.517799
2.2609999 19.799999 -33.9058
2.9260001 19.799999 -33.801399
3.5910001 19.799999 -33.570999
4.256 19.799999 -38.369801
4.921 19.799999 -33.144402
5.586 19.799999 -33.1264
6.2509999 19.799999 -33.3442
6.9159999 19.799999 -33.1912
7.5809999 19.799999 -32.930199
8.2460003 19.799999 -32.924801
8.9110003 19.799999 -32.854599
9.5760002 19.799999 -32.761002
10.241 19.799999 -32.912201
10.906 19.799999 -32.797001
11.571 19.799999 -32.994999
12.236 19.799999 -32.989601
12.901 19.799999 -32.928398
13.566 19.799999 -33.000401
14.231 19.799999 -33.014801
14.896 19.799999 -32.986
15.561 19.799999 -32.836601
16.226 19.799999 -32.744801
16.891001 19.799999 -32.791599
17.556 19.799999 -32.631401
18.221001 19.799999 -32.644001
18.886 19.799999 -32.683601
19.551001 19.799999 -32.7808
20.216 19.799999 -32.917599
20.881001 19.799999 -32.9734
21.546 19.799999 -33.0994
22.211 19.799999 -33.196602
22.875999 19.799999 -33.490002
23.541 19.799999 -33.774399
24.205999 19.799999 -33.8536
24.871 19.799999 -34.143398
25.535999 19.799999 -34.66
26.201 19.799999 -34.949799
26.865999 19.799999 -35.012798
27.531 19.799999 -35.180199
28.195999 19.799999 -35.090199
28.861 19.799999 -35.131599
29.525999 19.799999 -35.322399
30.191 19.799999 -35.498798
30.856001 19.799999 -35.569
31.521 19.799999 -36.344799
32.186001 19.799999 -36.5662
32.851002 19.799999 -36.9478
33.515999 19.799999 -36.9352
34.181 19.799999 -37.1656
34.846001 19.799999 -37.055801
35.511002 19.799999 -37.151199
36.175999 19.799999 -37.552601
36.841 19.799999 -37.156601
37.506001 19.799999 -37.6894
38.171001 19.799999 -38.269001
38.835999 19.799999 -39.0844
39.500999 19.799999 -39.629799
40.166 19.799999 -39.5578
40.831001 19.799999 -40.151798
41.495998 19.799999 -40.436199
42.160999 19.799999 -40.979801
42.826 19.799999 -41.292999
43.491001 19.799999 -41.365002
44.155998 19.799999 -41.2696
44.820999 19.799999 -41.503601
45.486 19.799999 -41.647598
46.151001 19.799999 -41.977001
46.816002 19.799999 -42.542198
47.480999 19.799999 -42.992199
48.146 19.799999 -43.323399
48.811001 19.799999 -43.766201
49.476002 19.799999 -44.4538
50.140999 19.799999 -44.615799
50.806 19.799999 -44.783199
51.471001 19.799999 -44.938
52.136002 19.799999 -45.058601
52.800999 19.799999 -45.199001
53.466 19.799999 -45.427601
54.131001 19.799999 -45.670601
54.796001 19.799999 -45.805599
55.460999 19.799999 -45.8092
56.125999 19.799999 -46.145802
56.791 19.799999 -46.624599
57.456001 19.799999 -47.366199
58.120998 19.799999 -48.280602
58.785999 19.799999 -48.709
59.451 19.799999 -49.367802
60.116001 19.799999 -49.857399
60.780998 19.799999 -50.5126
61.445999 19.799999 -50.7934
62.111 19.799999 -51.124599
62.776001 19.799999 -51.183998
63.441002 19.799999 -51.7024
64.106003 19.799999 -52.028198
64.771004 19.799999 -52.535801
65.435997 19.799999 -53.435799
66.100998 19.799999 -54.6418
66.765999 19.799999 -54.812801
67.431 19.799999 -55.752399
68.096001 19.799999 -inf
68.761002 19.799999 -inf
69.426003 19.799999 -inf
70.091003 19.799999 -inf
-58.918999 20.52 -inf
-58.254002 20.52 -inf
-57.589001 20.52 -inf
-56.924 20.52 -inf
-56.258999 20.52 -inf
-55.594002 20.52 -inf
-54.929001 20.52 -inf
-54.264 20.52 -inf
-53.598999 20.52 -inf
-52.933998 20.52 -inf
-52.269001 20.52 -inf
-51.604 20.52 -inf
-50.938999 20.52 -75.860199
-50.273998 20.52 -74.043999
-49.609001 20.52 -73.365402
-48.944 20.52 -72.076599
-48.278999 20.52 -70.508797
-47.613998 20.52 -68.559402
-46.949001 20.52 -67.0942
-46.284 20.52 -65.944
-45.618999 20.52 -64.8442
-44.953999 20.52 -64.422997
-44.289001 20.52 -64.212402
-43.624001 20.52 -63.715599
-42.959 20.52 -63.605801
-42.293999 20.52 -63.326801
-41.629002 20.52 -62.979401
-40.964001 20.52 -62.621201
-40.299 20.52 -62.4268
-39.633999 20.52 -61.845402
-38.969002 20.52 -61.146999
-38.304001 20.52 -60.335201
-37.639 20.52 -59.762798
-36.973999 20.52 -59.598999
-36.308998 20.52 -59.035599
-35.644001 20.52 -58.3498
-34.979 20.52 -57.654999
-34.313999 20.52 -57.190601
-33.648998 20.52 -56.429199
-32.984001 20.52 -55.682201
-32.319 20.52 -54.9622
-31.653999 20.52 -54.314201
-30.989 20.52 -52.784199
-30.323999 20.52 -50.5252
-29.659 20.52 -49.722401
-28.993999 20.52 -48.870998
-28.329 20.52 -48.590199
-27.664 20.52 -48.221199
-26.999001 20.52 -48.2356
-26.334 20.52 -47.915199
-25.669001 20.52 -48.0844
-25.004 20.52 -47.452599
-24.339001 20.52 -47.103401
-23.674 20.52 -46.730801
-23.009001 20.52 -46.196201
-22.344 20.52 -45.776798
-21.679001 20.52 -45.361
-21.014 20.52 -44.588799
-20.349001 20.52 -44.271999
-19.684 20.52 -43.372002
-19.018999 20.52 -42.551201
-18.354 20.52 -42.004002
-17.688999 20.52 -41.847401
-17.024 20.52 -41.748402
-16.358999 20.52 -41.557598
-15.694 20.52 -41.257
-15.029 20.52 -41.136398
-14.364 20.52 -40.607201
-13.699 20.52 -40.060001
-13.034 20.52 -39.624401
-12.369 20.52 -39.181599
-11.704 20.52 -39.030399
-11.039 20.52 -38.627201
-10.374 20.52 -38.382401
-9.7089996 20.52 -37.815399
-9.0439997 20.52 -37.163799
-8.3789997 20.52 -36.976601
-7.7140002 20.52 -36.830799
-7.0489998 20.52 -36.9352
-6.3839998 20.52 -36.548199
-5.7189999 20.52 -36.362801
-5.0539999 20.52 -36.337601
-4.3889999 20.52 -35.923599
-3.724 20.52 -35.5546
-3.059 20.52 -35.2486
-2.3940001 20.52 -35.151402
-1.729 20.52 -35.1964
-1.064 20.52 -35.050598
-0.39899999 20.52 -34.807598
0.266 20.52 -34.901199
0.93099999 20.52 -34.974998
1.596 20.52 -34.499802
2.2609999 20.52 -34.1866
2.9260001 20.52 -34.249599
3.5910001 20.52 -34.1236
4.256 20.52 -33.949001
4.921 20.52 -34.037201
5.586 20.52 -33.8536
6.2509999 20.52 -33.846401
6.9159999 20.52 -33.425201
7.5809999 20.52 -33.540401
8.2460003 20.52 -33.180401
8.9110003 20.52 -33.194801
9.5760002 20.52 -33.115601
10.241 20.52 -33.142601
10.906 20.52 -32.865398
11.571 20.52 -33.315399
12.236 20.52 -33.592602
12.901 20.52 -36.470798
13.566 20.52 -33.455799
14.231 20.52 -33.2812
14.896 20.52 -33.097599
15.561 20.52 -32.885201
16.226 20.52 -32.890598
16.891001 20.52 -32.966202
17.556 20.52 -32.787998
18.221001 20.52 -32.741199
18.886 20.52 -32.7052
19.551001 20.52 -33.0112
20.216 20.52 -32.989601
20.881001 20.52 -33.084999
21.546 20.52 -33.157001
22.211 20.52 -33.1012
22.875999 20.52 -33.495399
23.541 20.52 -33.623199
24.205999 20.52 -33.743801
24.871 20.52 -34.024601
25.535999 20.52 -34.355801
26.201 20.52 -34.389999
26.865999 20.52 -34.796799
27.531 20.52 -34.881401
28.195999 20.52 -35.003799
28.861 20.52 -35.244999
29.525999 20.52 -35.560001
30.191 20.52 -35.7094
30.856001 20.52 -36.166599
31.521 20.52 -36.290798
32.186001 20.52 -36.631001
32.851002 20.52 -36.776798
33.515999 20.52 -37.149399
34.181 20.52 -36.918999
34.846001 20.52 -37.059399
35.511002 20.52 -36.940601
36.175999 20.52 -37.198002
36.841 20.52 -38.067402
37.506001 20.52 -38.198799
38.171001 20.52 -38.431
38.835999 20.52 -38.7118
39.500999 20.52 -39.501999
40.166 20.52 -39.7234
40.831001 20.52 -39.9268
41.495998 20.52 -40.486599
42.160999 20.52 -40.556801
42.826 20.52 -40.803398
43.491001 20.52 -41.077
44.155998 20.52 -41.300201
44.820999 20.52 -41.581001
45.486 20.52 -41.784401
46.151001 20.52 -42.131802
46.816002 20.52 -42.410801
47.480999 20.52 -42.806801
48.146 20.52 -43.166801
48.811001 20.52 -43.867001
49.476002 20.52 -44.5294
50.140999 20.52 -44.8372
50.806 20.52 -44.7868
51.471001 20.52 -45.028
52.136002 20.52 -45.263802
52.800999 20.52 -45.334
53.466 20.52 -45.276402
54.131001 20.52 -45.6418
54.796001 20.52 -45.735401
55.460999 20.52 -46.010799
56.125999 20.52 -46.311401
56.791 20.52 -46.3186
57.456001 20.52 -47.222198
58.120998 20.52 -48.129398
58.785999 20.52 -48.681999
59.451 20.52 -49.304798
60.116001 20.52 -50.006802
60.780998 20.52 -50.415401
61.445999 20.52 -50.939201
62.111 20.52 -51.409
62.776001 20.52 -51.619598
63.441002 20.52 -52.049801
64.106003 20.52 -52.269402
64.771004 20.52 -52.253201
65.435997 20.52 -53.356602
66.100998 20.52 -54.395199
66.765999 20.52 -54.6796
67.431 20.52 -55.198002
68.096001 20.52 -55.516602
68.761002 20.52 -inf
69.426003 20.52 -inf
70.091003 20.52 -inf
-58.918999 21.24 -inf
-58.254002 21.24 -inf
-57.589001 21.24 -inf
-56.924 21.24 -inf
-56.258999 21.24 -inf
-55.594002 21.24 -inf
-54.929001 21.24 -inf
-54.264 21.24 -inf
-53.598999 21.24 -inf
-52.933998 21.24 -inf
-52.269001 21.24 -inf
-51.604 21.24 -inf
-50.938999 21.24 -inf
-50.273998 21.24 -73.959396
-49.609001 21.24 -73.406799
-48.944 21.24 -72.107201
-48.278999 21.24 -71.317001
-47.613998 21.24 -69.338799
-46.949001 21.24 -67.702599
-46.284 21.24 -66.473198
-45.618999 21.24 -65.126801
-44.953999 21.24 -64.138603
-44.289001 21.24 -64.005402
-43.624001 21.24 -63.8596
-42.959 21.24 -63.519402
-42.293999 21.24 -62.948799
-41.629002 21.24 -62.730999
-40.964001 21.24 -62.342201
-40.299 21.24 -62.232399
-39.633999 21.24 -61.681599
-38.969002 21.24 -61.3288
-38.304001 21.24 -60.452202
-37.639 21.24 -59.877998
-36.973999 21.24 -59.366798
-36.308998 21.24 -58.918598
-35.644001 21.24 -58.159
-34.979 21.24 -57.438999
-34.313999 21.24 -56.938599
-33.648998 21.24 -56.592999
-32.984001 21.24 -55.748798
-32.319 21.24 -55.163799
-31.653999 21.24 -54.298
-30.989 21.24 -52.051601
-30.323999 21.24 -50.683601
-29.659 21.24 -49.940201
-28.993999 21.24 -49.0564
-28.329 21.24 -48.611801
-27.664 21.24 -48.358002
-26.999001 21.24 -48.1492
-26.334 21.24 -47.913399
-25.669001 21.24 -47.690201
-25.004 21.24 -47.684799
-24.339001 21.24 -47.258202
-23.674 21.24 -46.7164
-23.009001 21.24 -46.117001
-22.344 21.24 -45.537399
-21.679001 21.24 -44.9398
-21.014 21.24 -44.4664
-20.349001 21.24 -44.149601
-19.684 21.24 -43.8382
-19.018999 21.24 -43.1506
-18.354 21.24 -42.367599
-17.688999 21.24 -42.065201
-17.024 21.24 -42.112
-16.358999 21.24 -42.032799
-15.694 21.24 -41.797001
-15.029 21.24 -41.278599
-14.364 21.24 -41.190399
-13.699 21.24 -40.4506
-13.034 21.24 -40.090599
-12.369 21.24 -39.5182
-11.704 21.24 -39.113201
-11.039 21.24 -38.762199
-10.374 21.24 -38.306801
-9.7089996 21.24 -37.784801
-9.0439997 21.24 -37.4104
-8.3789997 21.24 -37.149399
-7.7140002 21.24 -37.106201
-7.0489998 21.24 -37.18
-6.3839998 21.24 -36.874001
-5.7189999 21.24 -36.713799
-5.0539999 21.24 -36.407799
-4.3889999 21.24 -36.0802
-3.724 21.24 -35.930801
-3.059 21.24 -35.653599
-2.3940001 21.24 -35.5942
-1.729 21.24 -35.533001
-1.064 21.24 -35.205399
-0.39899999 21.24 -35.214401
0.266 21.24 -34.832802
0.93099999 21.24 -35.039799
1.596 21.24 -34.719398
2.2609999 21.24 -34.346802
2.9260001 21.24 -34.037201
3.5910001 21.24 -34.100201
4.256 21.24 -34.242401
4.921 21.24 -34.192001
5.586 21.24 -33.898602
6.2509999 21.24 -33.846401
6.9159999 21.24 -33.774399
7.5809999 21.24 -38.321201
8.2460003 21.24 -33.425201
8.9110003 21.24 -33.286598
9.5760002 21.24 -33.367599
10.241 21.24 -33.398201
10.906 21.24 -34.492599
11.571 21.24 -33.8428
12.236 21.24 -34.0606
12.901 21.24 -36.470798
13.566 21.24 -33.7006
14.231 21.24 -33.551201
14.896 21.24 -33.405399
15.561 21.24 -33.353199
16.226 21.24 -33.205601
16.891001 21.24 -33.130001
17.556 21.24 -33.106602
18.221001 21.24 -33.110199
18.886 21.24 -33.1912
19.551001 21.24 -33.250599
20.216 21.24 -33.147999
20.881001 21.24 -33.209202
21.546 21.24 -33.311798
22.211 21.24 -33.3442
22.875999 21.24 -33.589001
23.541 21.24 -33.603401
24.205999 21.24 -33.680801
24.871 21.24 -33.759998
25.535999 21.24 -34.166801
26.201 21.24 -34.166801
26.865999 21.24 -34.580799
27.531 21.24 -34.875999
28.195999 21.24 -35.437599
28.861 21.24 -35.036201
29.525999 21.24 -35.250401
30.191 21.24 -35.513199
30.856001 21.24 -35.921799
31.521 21.24 -35.970402
32.186001 21.24 -36.2728
32.851002 21.24 -36.675999
33.515999 21.24 -37.151199
34.181 21.24 -37.063
34.846001 21.24 -37.093601
35.511002 21.24 -37.403198
36.175999 21.24 -37.513
36.841 21.24 -37.702
37.506001 21.24 -37.7416
38.171001 21.24 -38.323002
38.835999 21.24 -38.682999
