# .PCD v0.7 - Point Cloud Data file format
VERSION 0.7
FIELDS x y z
SIZE 4 4 4
TYPE F F F
COUNT 1 1 1
WIDTH 1655
HEIGHT 1
VIEWPOINT 0 0 0 1 0 0 0
POINTS 1655
DATA ascii
31.254999 -4.3200002 -49.702599
31.92 -4.3200002 -49.666599
32.584999 -4.3200002 -50.165199
33.25 -4.3200002 -50.775398
33.915001 -4.3200002 -51.0112
34.580002 -4.3200002 -51.671799
35.244999 -4.3200002 -51.731201
35.91 -4.3200002 -52.111
36.575001 -4.3200002 -52.534
37.240002 -4.3200002 -53.146
37.904999 -4.3200002 -53.698601
38.57 -4.3200002 -53.898399
39.235001 -4.3200002 -54.046001
39.900002 -4.3200002 -54.469002
40.564999 -4.3200002 -55.214199
41.23 -4.3200002 -55.871201
41.895 -4.3200002 -56.618198
42.560001 -4.3200002 -57.356201
43.224998 -4.3200002 -57.894402
43.889999 -4.3200002 -58.816002
44.555 -4.3200002 -59.1922
45.220001 -4.3200002 -59.566601
45.884998 -4.3200002 -60.068802
46.549999 -4.3200002 -60.417999
47.215 -4.3200002 -61.312599
47.880001 -4.3200002 -62.320599
48.544998 -4.3200002 -63.593201
49.209999 -4.3200002 -64.284401
49.875 -4.3200002 -65.155602
50.540001 -4.3200002 -65.168198
51.205002 -4.3200002 -65.837799
51.869999 -4.3200002 -66.716202
52.535 -4.3200002 -67.384003
53.200001 -4.3200002 -68.003197
53.865002 -4.3200002 -68.408203
54.529999 -4.3200002 -68.649399
55.195 -4.3200002 -68.764603
55.860001 -4.3200002 -69.355003
56.525002 -4.3200002 -70.335999
57.189999 -4.3200002 -71.100998
57.855 -4.3200002 -inf
58.52 -4.3200002 -inf
59.185001 -4.3200002 -inf
59.849998 -4.3200002 -inf
60.514999 -4.3200002 -inf
61.18 -4.3200002 -inf
-65.169998 -3.5999999 -inf
-64.504997 -3.5999999 -inf
-63.84 -3.5999999 -inf
-63.174999 -3.5999999 -inf
-62.509998 -3.5999999 -inf
-61.845001 -3.5999999 -inf
-61.18 -3.5999999 -inf
-60.514999 -3.5999999 -64.642601
-59.849998 -3.5999999 -63.5158
-59.185001 -3.5999999 -61.510601
-58.52 -3.5999999 -59.710602
-57.855 -3.5999999 -58.8988
-57.189999 -3.5999999 -58.378601
-56.525002 -3.5999999 -57.910599
-55.860001 -3.5999999 -57.2374
-55.195 -3.5999999 -56.720798
-54.529999 -3.5999999 -56.4328
-53.865002 -3.5999999 -56.153801
-53.200001 -3.5999999 -55.862202
-52.535 -3.5999999 -55.516602
-51.869999 -3.5999999 -55.376202
-51.205002 -3.5999999 -55.1926
-50.540001 -3.5999999 -54.785801
-49.875 -3.5999999 -54.325001
-49.209999 -3.5999999 -54.152199
-48.544998 -3.5999999 -53.756199
-47.880001 -3.5999999 -54.134201
-47.215 -3.5999999 -53.9632
-46.549999 -3.5999999 -53.7346
-45.884998 -3.5999999 -53.340401
-45.220001 -3.5999999 -52.84
-44.555 -3.5999999 -52.233398
-43.889999 -3.5999999 -51.691601
-43.224998 -3.5999999 -51.4324
-42.560001 -3.5999999 -51.070599
-41.895 -3.5999999 -50.5252
-41.23 -3.5999999 -49.918598
-40.564999 -3.5999999 -49.454201
-39.900002 -3.5999999 -49.058201
-39.235001 -3.5999999 -49.045601
-38.57 -3.5999999 -48.737801
-37.904999 -3.5999999 -48.466
-37.240002 -3.5999999 -48.321999
-36.575001 -3.5999999 -48.329201
-35.91 -3.5999999 -47.566002
-35.244999 -3.5999999 -47.458
-34.580002 -3.5999999 -46.914398
-33.915001 -3.5999999 -47.215
-33.25 -3.5999999 -46.8424
-32.584999 -3.5999999 -46.264599
-31.92 -3.5999999 -46.219601
-31.254999 -3.5999999 -46.0252
-30.59 -3.5999999 -45.685001
-29.924999 -3.5999999 -45.490601
-29.26 -3.5999999 -45.249401
-28.594999 -3.5999999 -45.2314
-27.93 -3.5999999 -44.5924
-27.264999 -3.5999999 -44.6968
-26.6 -3.5999999 -44.5186
-25.934999 -3.5999999 -44.090199
-25.27 -3.5999999 -43.859798
-24.605 -3.5999999 -43.7374
-23.940001 -3.5999999 -43.472801
-23.275 -3.5999999 -43.310799
-22.610001 -3.5999999 -43.1488
-21.945 -3.5999999 -42.938202
-21.280001 -3.5999999 -42.630402
-20.615 -3.5999999 -42.580002
-19.950001 -3.5999999 -42.5746
-19.285 -3.5999999 -42.722198
-18.620001 -3.5999999 -42.335201
-17.955 -3.5999999 -41.9734
-17.290001 -3.5999999 -41.494598
-16.625 -3.5999999 -41.010399
-15.96 -3.5999999 -41.123798
-15.295 -3.5999999 -40.850201
-14.63 -3.5999999 -40.641399
-13.965 -3.5999999 -40.470402
-13.3 -3.5999999 -40.313801
-12.635 -3.5999999 -40.546001
-11.97 -3.5999999 -40.200401
-11.305 -3.5999999 -40.331799
-10.64 -3.5999999 -40.117599
-9.9750004 -3.5999999 -40.1446
-9.3100004 -3.5999999 -39.8008
-8.6450005 -3.5999999 -39.818802
-7.98 -3.5999999 -39.313
-7.3150001 -3.5999999 -39.421001
-6.6500001 -3.5999999 -39.294998
-5.9850001 -3.5999999 -39.127602
-5.3200002 -3.5999999 -38.947601
-4.6550002 -3.5999999 -39.4156
-3.99 -3.5999999 -39.4426
-3.325 -3.5999999 -39.030399
-2.6600001 -3.5999999 -38.634399
-1.995 -3.5999999 -38.337399
-1.33 -3.5999999 -38.632599
-0.66500002 -3.5999999 -38.709999
0 -3.5999999 -38.735199
0.66500002 -3.5999999 -38.8792
1.33 -3.5999999 -38.665001
1.995 -3.5999999 -38.562401
2.6600001 -3.5999999 -38.458
3.325 -3.5999999 -38.276199
3.99 -3.5999999 -38.168201
4.6550002 -3.5999999 -38.319401
5.3200002 -3.5999999 -38.274399
5.9850001 -3.5999999 -38.299599
6.6500001 -3.5999999 -38.555199
7.3150001 -3.5999999 -38.674
7.98 -3.5999999 -38.643398
8.6450005 -3.5999999 -38.564201
9.3100004 -3.5999999 -39.124001
9.9750004 -3.5999999 -39.0844
10.64 -3.5999999 -39.248199
11.305 -3.5999999 -39.088001
11.97 -3.5999999 -39.3778
12.635 -3.5999999 -39.741402
13.3 -3.5999999 -40.472198
13.965 -3.5999999 -40.969002
14.63 -3.5999999 -41.055401
15.295 -3.5999999 -41.481998
15.96 -3.5999999 -41.748402
16.625 -3.5999999 -41.541401
17.290001 -3.5999999 -42.1408
17.955 -3.5999999 -42.0508
18.620001 -3.5999999 -42.2812
19.285 -3.5999999 -42.4342
19.950001 -3.5999999 -42.8302
20.615 -3.5999999 -42.7006
21.280001 -3.5999999 -43.024601
21.945 -3.5999999 -43.220798
22.610001 -3.5999999 -43.157799
23.275 -3.5999999 -43.5718
23.940001 -3.5999999 -43.964199
24.605 -3.5999999 -44.113602
25.27 -3.5999999 -44.203602
25.934999 -3.5999999 -44.9254
26.6 -3.5999999 -46.745201
27.264999 -3.5999999 -47.425598
27.93 -3.5999999 -47.999802
28.594999 -3.5999999 -48.591999
29.26 -3.5999999 -48.694599
29.924999 -3.5999999 -48.8638
30.59 -3.5999999 -49.110401
31.254999 -3.5999999 -49.6432
31.92 -3.5999999 -49.774601
32.584999 -3.5999999 -50.100399
33.25 -3.5999999 -50.5504
33.915001 -3.5999999 -51.040001
34.580002 -3.5999999 -51.5746
35.244999 -3.5999999 -51.785198
35.91 -3.5999999 -52.0336
36.575001 -3.5999999 -52.525002
37.240002 -3.5999999 -52.991199
37.904999 -3.5999999 -53.2738
38.57 -3.5999999 -53.7328
39.235001 -3.5999999 -54.337601
39.900002 -3.5999999 -54.6544
40.564999 -3.5999999 -55.226799
41.23 -3.5999999 -55.761398
41.895 -3.5999999 -56.5966
42.560001 -3.5999999 -57.4552
43.224998 -3.5999999 -58.040199
43.889999 -3.5999999 -58.7314
44.555 -3.5999999 -59.278599
45.220001 -3.5999999 -59.5396
45.884998 -3.5999999 -60.106602
46.549999 -3.5999999 -60.706001
47.215 -3.5999999 -61.3288
47.880001 -3.5999999 -62.2882
48.544998 -3.5999999 -63.4384
49.209999 -3.5999999 -64.451797
49.875 -3.5999999 -65.009804
50.540001 -3.5999999 -65.083603
51.205002 -3.5999999 -65.882797
51.869999 -3.5999999 -66.381401
52.535 -3.5999999 -67.193199
53.200001 -3.5999999 -67.763802
53.865002 -3.5999999 -68.184998
54.529999 -3.5999999 -68.6008
55.195 -3.5999999 -68.768204
55.860001 -3.5999999 -69.445
56.525002 -3.5999999 -70.197403
57.189999 -3.5999999 -71.209
57.855 -3.5999999 -inf
58.52 -3.5999999 -inf
59.185001 -3.5999999 -inf
59.849998 -3.5999999 -inf
60.514999 -3.5999999 -inf
61.18 -3.5999999 -inf
-65.169998 -2.8800001 -inf
-64.504997 -2.8800001 -inf
-63.84 -2.8800001 -inf
-63.174999 -2.8800001 -inf
-62.509998 -2.8800001 -inf
-61.845001 -2.8800001 -inf
-61.18 -2.8800001 -inf
-60.514999 -2.8800001 -inf
-59.849998 -2.8800001 -63.5536
-59.185001 -2.8800001 -61.670799
-58.52 -2.8800001 -59.825802
-57.855 -2.8800001 -59.2822
-57.189999 -2.8800001 -58.711601
-56.525002 -2.8800001 -58.151798
-55.860001 -2.8800001 -57.496601
-55.195 -2.8800001 -56.920601
-54.529999 -2.8800001 -56.6362
-53.865002 -2.8800001 -56.191601
-53.200001 -2.8800001 -56.0476
-52.535 -2.8800001 -55.712799
-51.869999 -2.8800001 -55.4212
-51.205002 -2.8800001 -54.852402
-50.540001 -2.8800001 -54.839802
-49.875 -2.8800001 -54.4006
-49.209999 -2.8800001 -53.844398
-48.544998 -2.8800001 -53.637402
-47.880001 -2.8800001 -53.801201
-47.215 -2.8800001 -54.175598
-46.549999 -2.8800001 -53.806599
-45.884998 -2.8800001 -53.101002
-45.220001 -2.8800001 -52.821999
-44.555 -2.8800001 -52.143398
-43.889999 -2.8800001 -51.770802
-43.224998 -2.8800001 -51.187599
-42.560001 -2.8800001 -50.994999
-41.895 -2.8800001 -50.492802
-41.23 -2.8800001 -50.069801
-40.564999 -2.8800001 -49.722401
-39.900002 -2.8800001 -49.130199
-39.235001 -2.8800001 -48.916
-38.57 -2.8800001 -48.5326
-37.904999 -2.8800001 -48.5686
-37.240002 -2.8800001 -48.064602
-36.575001 -2.8800001 -48.750401
-35.91 -2.8800001 -48.260799
-35.244999 -2.8800001 -47.632599
-34.580002 -2.8800001 -47.438202
-33.915001 -2.8800001 -47.229401
-33.25 -2.8800001 -46.9468
-32.584999 -2.8800001 -46.532799
-31.92 -2.8800001 -46.221401
-31.254999 -2.8800001 -46.3204
-30.59 -2.8800001 -45.8452
-29.924999 -2.8800001 -45.577
-29.26 -2.8800001 -45.357399
-28.594999 -2.8800001 -45.153999
-27.93 -2.8800001 -45.047798
-27.264999 -2.8800001 -44.750801
-26.6 -2.8800001 -44.7868
-25.934999 -2.8800001 -44.083
-25.27 -2.8800001 -43.829201
-24.605 -2.8800001 -44.0326
-23.940001 -2.8800001 -43.726601
-23.275 -2.8800001 -43.145199
-22.610001 -2.8800001 -43.002998
-21.945 -2.8800001 -42.8428
-21.280001 -2.8800001 -42.542198
-20.615 -2.8800001 -42.6628
-19.950001 -2.8800001 -42.623199
-19.285 -2.8800001 -42.583599
-18.620001 -2.8800001 -42.194801
-17.955 -2.8800001 -42.057999
-17.290001 -2.8800001 -41.829399
-16.625 -2.8800001 -41.5252
-15.96 -2.8800001 -41.327202
-15.295 -2.8800001 -40.9366
-14.63 -2.8800001 -40.549599
-13.965 -2.8800001 -40.4506
-13.3 -2.8800001 -40.4272
-12.635 -2.8800001 -40.571201
-11.97 -2.8800001 -40.492001
-11.305 -2.8800001 -40.500999
-10.64 -2.8800001 -40.407398
-9.9750004 -2.8800001 -40.198601
-9.3100004 -2.8800001 -39.793598
-8.6450005 -2.8800001 -39.4804
-7.98 -2.8800001 -39.5182
-7.3150001 -2.8800001 -39.271599
-6.6500001 -2.8800001 -39.154598
-5.9850001 -2.8800001 -38.9944
-5.3200002 -2.8800001 -39.294998
-4.6550002 -2.8800001 -39.802601
-3.99 -2.8800001 -39.1978
-3.325 -2.8800001 -38.8396
-2.6600001 -2.8800001 -38.7136
-1.995 -2.8800001 -37.9828
-1.33 -2.8800001 -38.728001
-0.66500002 -2.8800001 -38.5966
0 -2.8800001 -38.616402
0.66500002 -2.8800001 -38.728001
1.33 -2.8800001 -38.614601
1.995 -2.8800001 -38.625401
2.6600001 -2.8800001 -38.5336
3.325 -2.8800001 -38.422001
3.99 -2.8800001 -38.3428
4.6550002 -2.8800001 -38.198799
5.3200002 -2.8800001 -38.269001
5.9850001 -2.8800001 -38.063801
6.6500001 -2.8800001 -38.233002
7.3150001 -2.8800001 -38.517399
7.98 -2.8800001 -38.5984
8.6450005 -2.8800001 -38.5588
9.3100004 -2.8800001 -39.035801
9.9750004 -2.8800001 -39.125801
10.64 -2.8800001 -39.208599
11.305 -2.8800001 -39.217602
11.97 -2.8800001 -39.348999
12.635 -2.8800001 -39.664001
13.3 -2.8800001 -39.944801
13.965 -2.8800001 -40.383999
14.63 -2.8800001 -40.7188
15.295 -2.8800001 -41.158001
15.96 -2.8800001 -41.622398
16.625 -2.8800001 -41.714199
17.290001 -2.8800001 -41.993198
17.955 -2.8800001 -42.104801
18.620001 -2.8800001 -42.589001
19.285 -2.8800001 -42.4342
19.950001 -2.8800001 -42.8302
20.615 -2.8800001 -42.801399
21.280001 -2.8800001 -43.242401
21.945 -2.8800001 -43.154202
22.610001 -2.8800001 -43.4566
23.275 -2.8800001 -43.859798
23.940001 -2.8800001 -44.0452
24.605 -2.8800001 -44.369202
25.27 -2.8800001 -44.385399
25.934999 -2.8800001 -44.907398
26.6 -2.8800001 -46.6264
27.264999 -2.8800001 -47.2672
27.93 -2.8800001 -47.745998
28.594999 -2.8800001 -48.4408
29.26 -2.8800001 -48.995201
29.924999 -2.8800001 -49.218399
30.59 -2.8800001 -49.090599
31.254999 -2.8800001 -49.419998
31.92 -2.8800001 -49.702599
32.584999 -2.8800001 -50.3992
33.25 -2.8800001 -50.548599
33.915001 -2.8800001 -51.084999
34.580002 -2.8800001 -51.311798
35.244999 -2.8800001 -51.823002
35.91 -2.8800001 -52.019199
36.575001 -2.8800001 -52.5466
37.240002 -2.8800001 -53.122601
37.904999 -2.8800001 -53.407001
38.57 -2.8800001 -53.910999
39.235001 -2.8800001 -54.479801
39.900002 -2.8800001 -54.994598
40.564999 -2.8800001 -55.509399
41.23 -2.8800001 -56.043999
41.895 -2.8800001 -56.8522
42.560001 -2.8800001 -57.804401
43.224998 -2.8800001 -58.180599
43.889999 -2.8800001 -58.790798
44.555 -2.8800001 -59.248001
45.220001 -2.8800001 -59.8708
45.884998 -2.8800001 -60.570999
46.549999 -2.8800001 -60.686199
47.215 -2.8800001 -61.272999
47.880001 -2.8800001 -62.219799
48.544998 -2.8800001 -63.350201
49.209999 -2.8800001 -64.041397
49.875 -2.8800001 -64.646202
50.540001 -2.8800001 -65.060204
51.205002 -2.8800001 -65.429199
51.869999 -2.8800001 -66.375999
52.535 -2.8800001 -66.892601
53.200001 -2.8800001 -67.585602
53.865002 -2.8800001 -67.979797
54.529999 -2.8800001 -68.582802
55.195 -2.8800001 -68.861801
55.860001 -2.8800001 -69.457603
56.525002 -2.8800001 -70.078598
57.189999 -2.8800001 -71.367401
57.855 -2.8800001 -inf
58.52 -2.8800001 -inf
59.185001 -2.8800001 -inf
59.849998 -2.8800001 -inf
60.514999 -2.8800001 -inf
61.18 -2.8800001 -inf
-65.169998 -2.1600001 -inf
-64.504997 -2.1600001 -inf
-63.84 -2.1600001 -inf
-63.174999 -2.1600001 -inf
-62.509998 -2.1600001 -inf
-61.845001 -2.1600001 -inf
-61.18 -2.1600001 -inf
-60.514999 -2.1600001 -inf
-59.849998 -2.1600001 -64.426598
-59.185001 -2.1600001 -64.068398
-58.52 -2.1600001 -59.964401
-57.855 -2.1600001 -59.917599
-57.189999 -2.1600001 -59.150799
-56.525002 -2.1600001 -58.409199
-55.860001 -2.1600001 -57.716202
-55.195 -2.1600001 -57.07
-54.529999 -2.1600001 -56.780201
-53.865002 -2.1600001 -56.600201
-53.200001 -2.1600001 -56.063801
-52.535 -2.1600001 -56.153801
-51.869999 -2.1600001 -55.880199
-51.205002 -2.1600001 -55.4716
-50.540001 -2.1600001 -54.7318
-49.875 -2.1600001 -54.667
-49.209999 -2.1600001 -53.8876
-48.544998 -2.1600001 -53.851601
-47.880001 -2.1600001 -53.792198
-47.215 -2.1600001 -54.0928
-46.549999 -2.1600001 -53.830002
-45.884998 -2.1600001 -53.322399
-45.220001 -2.1600001 -52.629398
-44.555 -2.1600001 -52.530399
-43.889999 -2.1600001 -51.7924
-43.224998 -2.1600001 -51.6376
-42.560001 -2.1600001 -51.196602
-41.895 -2.1600001 -50.644001
-41.23 -2.1600001 -50.069801
-40.564999 -2.1600001 -49.799801
-39.900002 -2.1600001 -49.446999
-39.235001 -2.1600001 -48.908798
-38.57 -2.1600001 -48.7864
-37.904999 -2.1600001 -48.833199
-37.240002 -2.1600001 -48.728802
-36.575001 -2.1600001 -48.743198
-35.91 -2.1600001 -48.228401
-35.244999 -2.1600001 -47.812599
-34.580002 -2.1600001 -47.159199
-33.915001 -2.1600001 -47.160999
-33.25 -2.1600001 -46.810001
-32.584999 -2.1600001 -46.617401
-31.92 -2.1600001 -46.161999
-31.254999 -2.1600001 -46.2034
-30.59 -2.1600001 -46.149399
-29.924999 -2.1600001 -45.702999
-29.26 -2.1600001 -45.773201
-28.594999 -2.1600001 -45.415001
-27.93 -2.1600001 -45.199001
-27.264999 -2.1600001 -44.878601
-26.6 -2.1600001 -44.612202
-25.934999 -2.1600001 -44.385399
-25.27 -2.1600001 -44.255798
-24.605 -2.1600001 -43.766201
-23.940001 -2.1600001 -43.665401
-23.275 -2.1600001 -43.465599
-22.610001 -2.1600001 -43.145199
-21.945 -2.1600001 -43.040798
-21.280001 -2.1600001 -42.833801
-20.615 -2.1600001 -42.889599
-19.950001 -2.1600001 -42.819401
-19.285 -2.1600001 -42.621399
-18.620001 -2.1600001 -42.455799
-17.955 -2.1600001 -42.131802
-17.290001 -2.1600001 -42.056198
-16.625 -2.1600001 -41.762798
-15.96 -2.1600001 -41.681801
-15.295 -2.1600001 -41.681801
-14.63 -2.1600001 -40.819599
-13.965 -2.1600001 -40.619801
-13.3 -2.1600001 -40.484798
-12.635 -2.1600001 -40.612598
-11.97 -2.1600001 -40.524399
-11.305 -2.1600001 -40.344398
-10.64 -2.1600001 -40.393002
-9.9750004 -2.1600001 -40.218399
-9.3100004 -2.1600001 -40.191399
-8.6450005 -2.1600001 -39.491199
-7.98 -2.1600001 -39.8242
-7.3150001 -2.1600001 -39.433601
-6.6500001 -2.1600001 -39.2248
-5.9850001 -2.1600001 -39.626202
-5.3200002 -2.1600001 -39.862
-4.6550002 -2.1600001 -39.642399
-3.99 -2.1600001 -39.231998
-3.325 -2.1600001 -38.976398
-2.6600001 -2.1600001 -38.9062
-1.995 -2.1600001 -38.0728
-1.33 -2.1600001 -38.310398
-0.66500002 -2.1600001 -38.584
0 -2.1600001 -38.551601
0.66500002 -2.1600001 -38.607399
1.33 -2.1600001 -38.589401
1.995 -2.1600001 -38.3284
2.6600001 -2.1600001 -38.548
3.325 -2.1600001 -38.576801
3.99 -2.1600001 -38.425598
4.6550002 -2.1600001 -38.332001
5.3200002 -2.1600001 -38.2132
5.9850001 -2.1600001 -38.2276
6.6500001 -2.1600001 -38.254601
7.3150001 -2.1600001 -38.423801
7.98 -2.1600001 -38.695599
8.6450005 -2.1600001 -38.611
9.3100004 -2.1600001 -38.900799
9.9750004 -2.1600001 -39.1222
10.64 -2.1600001 -39.226601
11.305 -2.1600001 -39.590199
11.97 -2.1600001 -39.4804
12.635 -2.1600001 -39.705399
13.3 -2.1600001 -39.987999
13.965 -2.1600001 -40.069
14.63 -2.1600001 -40.342602
15.295 -2.1600001 -40.799801
15.96 -2.1600001 -41.260601
16.625 -2.1600001 -41.338001
17.290001 -2.1600001 -41.681801
17.955 -2.1600001 -41.978802
18.620001 -2.1600001 -42.486401
19.285 -2.1600001 -42.437801
19.950001 -2.1600001 -43.067799
20.615 -2.1600001 -42.871601
21.280001 -2.1600001 -43.004799
21.945 -2.1600001 -43.318001
22.610001 -2.1600001 -43.447601
23.275 -2.1600001 -43.816601
23.940001 -2.1600001 -44.110001
24.605 -2.1600001 -44.3368
25.27 -2.1600001 -44.527599
25.934999 -2.1600001 -44.813801
26.6 -2.1600001 -46.250198
27.264999 -2.1600001 -47.062
27.93 -2.1600001 -47.589401
28.594999 -2.1600001 -48.194199
29.26 -2.1600001 -48.743198
29.924999 -2.1600001 -49.4506
30.59 -2.1600001 -49.506401
31.254999 -2.1600001 -49.756599
31.92 -2.1600001 -49.7062
32.584999 -2.1600001 -50.617001
33.25 -2.1600001 -50.834801
33.915001 -2.1600001 -50.915798
34.580002 -2.1600001 -51.480999
35.244999 -2.1600001 -51.889599
35.91 -2.1600001 -52.258598
36.575001 -2.1600001 -52.654598
37.240002 -2.1600001 -53.212601
37.904999 -2.1600001 -53.5546
38.57 -2.1600001 -54.114399
39.235001 -2.1600001 -54.558998
39.900002 -2.1600001 -55.018002
40.564999 -2.1600001 -55.529202
41.23 -2.1600001 -56.1628
41.895 -2.1600001 -57.3778
42.560001 -2.1600001 -57.667599
43.224998 -2.1600001 -58.162601
43.889999 -2.1600001 -58.702599
44.555 -2.1600001 -59.291199
45.220001 -2.1600001 -59.8708
45.884998 -2.1600001 -60.608799
46.549999 -2.1600001 -60.796001
47.215 -2.1600001 -61.3522
47.880001 -2.1600001 -62.216202
48.544998 -2.1600001 -63.2188
49.209999 -2.1600001 -64.414001
49.875 -2.1600001 -64.728996
50.540001 -2.1600001 -64.8424
51.205002 -2.1600001 -65.547997
51.869999 -2.1600001 -66.419197
52.535 -2.1600001 -67.121201
53.200001 -2.1600001 -67.621597
53.865002 -2.1600001 -68.071602
54.529999 -2.1600001 -68.649399
55.195 -2.1600001 -69.041801
55.860001 -2.1600001 -69.594398
56.525002 -2.1600001 -70.220802
57.189999 -2.1600001 -71.394402
57.855 -2.1600001 -inf
58.52 -2.1600001 -inf
59.185001 -2.1600001 -inf
59.849998 -2.1600001 -inf
60.514999 -2.1600001 -inf
61.18 -2.1600001 -inf
-65.169998 -1.4400001 -inf
-64.504997 -1.4400001 -inf
-63.84 -1.4400001 -inf
-63.174999 -1.4400001 -inf
-62.509998 -1.4400001 -inf
-61.845001 -1.4400001 -inf
-61.18 -1.4400001 -inf
-60.514999 -1.4400001 -inf
-59.849998 -1.4400001 -inf
-59.185001 -1.4400001 -61.0588
-58.52 -1.4400001 -60.938202
-57.855 -1.4400001 -60.248798
-57.189999 -1.4400001 -59.59
-56.525002 -1.4400001 -59.222801
-55.860001 -1.4400001 -58.256199
-55.195 -1.4400001 -57.640598
-54.529999 -1.4400001 -56.960201
-53.865002 -1.4400001 -56.6614
-53.200001 -1.4400001 -56.141201
-52.535 -1.4400001 -55.916199
-51.869999 -1.4400001 -55.925201
-51.205002 -1.4400001 -55.619202
-50.540001 -1.4400001 -54.865002
-49.875 -1.4400001 -54.758801
-49.209999 -1.4400001 -54.3106
-48.544998 -1.4400001 -54.252998
-47.880001 -1.4400001 -54.189999
-47.215 -1.4400001 -54.1054
-46.549999 -1.4400001 -53.702202
-45.884998 -1.4400001 -53.369202
-45.220001 -1.4400001 -53.023602
-44.555 -1.4400001 -52.373798
-43.889999 -1.4400001 -51.8932
-43.224998 -1.4400001 -51.9076
-42.560001 -1.4400001 -51.072399
-41.895 -1.4400001 -51.263199
-41.23 -1.4400001 -50.429798
-40.564999 -1.4400001 -50.073399
-39.900002 -1.4400001 -49.535198
-39.235001 -1.4400001 -49.405602
-38.57 -1.4400001 -49.128399
-37.904999 -1.4400001 -48.707199
-37.240002 -1.4400001 -48.7864
-36.575001 -1.4400001 -48.602798
-35.91 -1.4400001 -47.940399
-35.244999 -1.4400001 -47.578602
-34.580002 -1.4400001 -47.376999
-33.915001 -1.4400001 -47.479599
-33.25 -1.4400001 -46.788399
-32.584999 -1.4400001 -46.657001
-31.92 -1.4400001 -46.338402
-31.254999 -1.4400001 -46.336601
-30.59 -1.4400001 -46.153
-29.924999 -1.4400001 -45.825401
-29.26 -1.4400001 -45.604
-28.594999 -1.4400001 -45.382599
-27.93 -1.4400001 -45.235001
-27.264999 -1.4400001 -44.898399
-26.6 -1.4400001 -44.957802
-25.934999 -1.4400001 -44.4142
-25.27 -1.4400001 -44.5168
-24.605 -1.4400001 -44.2108
-23.940001 -1.4400001 -43.75
-23.275 -1.4400001 -43.796799
-22.610001 -1.4400001 -43.465599
-21.945 -1.4400001 -43.2766
-21.280001 -1.4400001 -42.963402
-20.615 -1.4400001 -43.024601
-19.950001 -1.4400001 -42.8176
-19.285 -1.4400001 -42.783401
-18.620001 -1.4400001 -42.5098
-17.955 -1.4400001 -42.270401
-17.290001 -1.4400001 -41.996799
-16.625 -1.4400001 -41.7556
-15.96 -1.4400001 -41.631401
-15.295 -1.4400001 -41.629601
-14.63 -1.4400001 -41.071602
-13.965 -1.4400001 -40.7206
-13.3 -1.4400001 -40.364201
-12.635 -1.4400001 -40.364201
-11.97 -1.4400001 -40.616199
-11.305 -1.4400001 -40.4146
-10.64 -1.4400001 -40.330002
-9.9750004 -1.4400001 -40.027599
-9.3100004 -1.4400001 -40.436199
-8.6450005 -1.4400001 -39.892601
-7.98 -1.4400001 -40.000599
-7.3150001 -1.4400001 -39.779202
-6.6500001 -1.4400001 -39.703602
-5.9850001 -1.4400001 -39.359798
-5.3200002 -1.4400001 -39.539799
-4.6550002 -1.4400001 -39.318401
-3.99 -1.4400001 -39.008801
-3.325 -1.4400001 -39.178001
-2.6600001 -1.4400001 -38.924198
-1.995 -1.4400001 -38.2924
-1.33 -1.4400001 -38.539001
-0.66500002 -1.4400001 -38.629002
0 -1.4400001 -38.427399
0.66500002 -1.4400001 -38.708199
1.33 -1.4400001 -38.8162
1.995 -1.4400001 -38.859402
2.6600001 -1.4400001 -38.812599
3.325 -1.4400001 -38.8162
3.99 -1.4400001 -38.695599
4.6550002 -1.4400001 -38.665001
5.3200002 -1.4400001 -38.639801
5.9850001 -1.4400001 -38.441799
6.6500001 -1.4400001 -38.299599
7.3150001 -1.4400001 -38.387798
7.98 -1.4400001 -38.556999
8.6450005 -1.4400001 -38.681198
9.3100004 -1.4400001 -38.670399
9.9750004 -1.4400001 -39.115002
10.64 -1.4400001 -39.080799
11.305 -1.4400001 -39.403
11.97 -1.4400001 -39.559601
12.635 -1.4400001 -39.737801
13.3 -1.4400001 -39.847599
13.965 -1.4400001 -39.874599
14.63 -1.4400001 -40.063599
15.295 -1.4400001 -40.576599
15.96 -1.4400001 -40.997799
16.625 -1.4400001 -41.471199
17.290001 -1.4400001 -41.660198
17.955 -1.4400001 -41.872601
18.620001 -1.4400001 -42.3946
19.285 -1.4400001 -42.360401
19.950001 -1.4400001 -42.887798
20.615 -1.4400001 -42.686199
21.280001 -1.4400001 -43.0084
21.945 -1.4400001 -43.2136
22.610001 -1.4400001 -43.488998
23.275 -1.4400001 -43.591599
23.940001 -1.4400001 -44.101002
24.605 -1.4400001 -44.370998
25.27 -1.4400001 -44.768799
25.934999 -1.4400001 -44.833599
26.6 -1.4400001 -45.7444
27.264999 -1.4400001 -46.486
27.93 -1.4400001 -47.269001
28.594999 -1.4400001 -48.176201
29.26 -1.4400001 -48.818802
29.924999 -1.4400001 -49.320999
30.59 -1.4400001 -49.470402
31.254999 -1.4400001 -49.951
31.92 -1.4400001 -50.008598
32.584999 -1.4400001 -50.228199
33.25 -1.4400001 -50.977001
33.915001 -1.4400001 -51.124599
34.580002 -1.4400001 -51.5998
35.244999 -1.4400001 -51.922001
35.91 -1.4400001 -52.298199
36.575001 -1.4400001 -52.683399
37.240002 -1.4400001 -53.353001
37.904999 -1.4400001 -53.727402
38.57 -1.4400001 -54.5014
39.235001 -1.4400001 -54.785801
39.900002 -1.4400001 -55.549
40.564999 -1.4400001 -55.912601
41.23 -1.4400001 -56.584
41.895 -1.4400001 -57.424599
42.560001 -1.4400001 -57.6856
43.224998 -1.4400001 -58.155399
43.889999 -1.4400001 -58.531601
44.555 -1.4400001 -59.177799
45.220001 -1.4400001 -59.860001
45.884998 -1.4400001 -60.455799
46.549999 -1.4400001 -60.808601
47.215 -1.4400001 -61.48
47.880001 -1.4400001 -62.113602
48.544998 -1.4400001 -63.371799
49.209999 -1.4400001 -64.0522
49.875 -1.4400001 -64.4338
50.540001 -1.4400001 -64.883797
51.205002 -1.4400001 -65.580399
51.869999 -1.4400001 -66.516403
52.535 -1.4400001 -66.780998
53.200001 -1.4400001 -67.668404
53.865002 -1.4400001 -67.9132
54.529999 -1.4400001 -68.744797
55.195 -1.4400001 -69.302803
55.860001 -1.4400001 -69.806801
56.525002 -1.4400001 -70.325203
57.189999 -1.4400001 -71.304398
57.855 -1.4400001 -72.7948
58.52 -1.4400001 -inf
59.185001 -1.4400001 -inf
59.849998 -1.4400001 -inf
60.514999 -1.4400001 -inf
61.18 -1.4400001 -inf
-65.169998 -0.72000003 -inf
-64.504997 -0.72000003 -inf
-63.84 -0.72000003 -inf
-63.174999 -0.72000003 -inf
-62.509998 -0.72000003 -inf
-61.845001 -0.72000003 -inf
-61.18 -0.72000003 -inf
-60.514999 -0.72000003 -inf
-59.849998 -0.72000003 -inf
-59.185001 -0.72000003 -64.046799
-58.52 -0.72000003 -61.960602
-57.855 -0.72000003 -60.362202
-57.189999 -0.72000003 -59.584599
-56.525002 -0.72000003 -59.188599
-55.860001 -0.72000003 -58.382198
-55.195 -0.72000003 -57.6208
-54.529999 -0.72000003 -57.037601
-53.865002 -0.72000003 -56.659599
-53.200001 -0.72000003 -56.359001
-52.535 -0.72000003 -56.058399
-51.869999 -0.72000003 -55.683998
-51.205002 -0.72000003 -55.649799
-50.540001 -0.72000003 -54.965801
-49.875 -0.72000003 -54.798401
-49.209999 -0.72000003 -54.366402
-48.544998 -0.72000003 -54.0784
-47.880001 -0.72000003 -54.062199
-47.215 -0.72000003 -53.910999
-46.549999 -0.72000003 -53.839001
-45.884998 -0.72000003 -53.291801
-45.220001 -0.72000003 -52.948002
-44.555 -0.72000003 -52.274799
-43.889999 -0.72000003 -51.923801
-43.224998 -0.72000003 -51.616001
-42.560001 -0.72000003 -51.245201
-41.895 -0.72000003 -50.888802
-41.23 -0.72000003 -50.518002
-40.564999 -0.72000003 -50.084202
-39.900002 -0.72000003 -49.8358
-39.235001 -0.72000003 -49.8358
-38.57 -0.72000003 -49.4632
-37.904999 -0.72000003 -48.809799
-37.240002 -0.72000003 -49.189602
-36.575001 -0.72000003 -48.7882
-35.91 -0.72000003 -48.618999
-35.244999 -0.72000003 -48.343601
-34.580002 -0.72000003 -47.387798
-33.915001 -0.72000003 -47.346401
-33.25 -0.72000003 -47.0728
-32.584999 -0.72000003 -46.853199
-31.92 -0.72000003 -46.455399
-31.254999 -0.72000003 -46.156601
-30.59 -0.72000003 -46.298801
-29.924999 -0.72000003 -46.021599
-29.26 -0.72000003 -46.181801
-28.594999 -0.72000003 -45.978401
-27.93 -0.72000003 -45.672401
-27.264999 -0.72000003 -45.172001
-26.6 -0.72000003 -44.689602
-25.934999 -0.72000003 -45.013599
-25.27 -0.72000003 -44.542
-24.605 -0.72000003 -44.259399
-23.940001 -0.72000003 -44.009201
-23.275 -0.72000003 -43.733799
-22.610001 -0.72000003 -43.8148
-21.945 -0.72000003 -43.588001
-21.280001 -0.72000003 -43.382801
-20.615 -0.72000003 -43.105598
-19.950001 -0.72000003 -43.002998
-19.285 -0.72000003 -42.891399
-18.620001 -0.72000003 -42.633999
-17.955 -0.72000003 -42.423401
-17.290001 -0.72000003 -42.158798
-16.625 -0.72000003 -42.020199
-15.96 -0.72000003 -41.9986
-15.295 -0.72000003 -41.778999
-14.63 -0.72000003 -41.336201
-13.965 -0.72000003 -41.100399
-13.3 -0.72000003 -40.715199
-12.635 -0.72000003 -40.430801
-11.97 -0.72000003 -40.882599
-11.305 -0.72000003 -40.265202
-10.64 -0.72000003 -40.555
-9.9750004 -0.72000003 -40.162601
-9.3100004 -0.72000003 -40.270599
-8.6450005 -0.72000003 -40.266998
-7.98 -0.72000003 -39.982601
-7.3150001 -0.72000003 -39.741402
-6.6500001 -0.72000003 -39.989799
-5.9850001 -0.72000003 -39.2644
-5.3200002 -0.72000003 -39.397598
-4.6550002 -0.72000003 -39.266201
-3.99 -0.72000003 -39.1618
-3.325 -0.72000003 -39.473202
-2.6600001 -0.72000003 -39.176201
-1.995 -0.72000003 -38.6758
-1.33 -0.72000003 -38.629002
-0.66500002 -0.72000003 -38.5984
0 -0.72000003 -38.657799
0.66500002 -0.72000003 -38.630798
1.33 -0.72000003 -38.654202
1.995 -0.72000003 -38.701
2.6600001 -0.72000003 -38.465199
3.325 -0.72000003 -38.785599
3.99 -0.72000003 -38.791
4.6550002 -0.72000003 -38.634399
5.3200002 -0.72000003 -38.654202
5.9850001 -0.72000003 -38.578602
6.6500001 -0.72000003 -38.422001
7.3150001 -0.72000003 -38.3806
7.98 -0.72000003 -38.589401
8.6450005 -0.72000003 -38.638
9.3100004 -0.72000003 -38.632599
9.9750004 -0.72000003 -38.985401
10.64 -0.72000003 -38.9296
11.305 -0.72000003 -39.093399
11.97 -0.72000003 -39.537998
12.635 -0.72000003 -39.847599
13.3 -0.72000003 -39.644199
13.965 -0.72000003 -39.615398
14.63 -0.72000003 -40.036598
15.295 -0.72000003 -40.457802
15.96 -0.72000003 -40.879002
16.625 -0.72000003 -41.1166
17.290001 -0.72000003 -41.563
17.955 -0.72000003 -41.816799
18.620001 -0.72000003 -42.284801
19.285 -0.72000003 -42.236198
19.950001 -0.72000003 -42.8554
20.615 -0.72000003 -42.813999
21.280001 -0.72000003 -43.129002
21.945 -0.72000003 -43.346802
22.610001 -0.72000003 -43.5844
23.275 -0.72000003 -43.791401
23.940001 -0.72000003 -43.9408
24.605 -0.72000003 -44.703999
25.27 -0.72000003 -44.943401
25.934999 -0.72000003 -44.9884
26.6 -0.72000003 -45.326801
27.264999 -0.72000003 -46.079201
27.93 -0.72000003 -47.229401
28.594999 -0.72000003 -47.898998
29.26 -0.72000003 -48.719799
29.924999 -0.72000003 -49.3102
30.59 -0.72000003 -49.751202
31.254999 -0.72000003 -49.551399
31.92 -0.72000003 -50.138199
32.584999 -0.72000003 -50.158001
33.25 -0.72000003 -50.3722
33.915001 -0.72000003 -50.914001
34.580002 -0.72000003 -51.679001
35.244999 -0.72000003 -51.786999
35.91 -0.72000003 -52.512402
36.575001 -0.72000003 -52.780602
37.240002 -0.72000003 -53.493401
37.904999 -0.72000003 -53.921799
38.57 -0.72000003 -54.776798
39.235001 -0.72000003 -55.071999
39.900002 -0.72000003 -55.9846
40.564999 -0.72000003 -56.341
41.23 -0.72000003 -56.753201
41.895 -0.72000003 -57.201401
42.560001 -0.72000003 -57.743198
43.224998 -0.72000003 -58.249001
43.889999 -0.72000003 -58.902401
44.555 -0.72000003 -59.507198
45.220001 -0.72000003 -60.043598
45.884998 -0.72000003 -60.400002
46.549999 -0.72000003 -60.776199
47.215 -0.72000003 -61.398998
47.880001 -0.72000003 -62.113602
48.544998 -0.72000003 -63.145
49.209999 -0.72000003 -63.969398
49.875 -0.72000003 -64.268204
50.540001 -0.72000003 -64.612
51.205002 -0.72000003 -65.7658
51.869999 -0.72000003 -66.068199
52.535 -0.72000003 -66.784599
53.200001 -0.72000003 -67.495598
53.865002 -0.72000003 -67.853798
54.529999 -0.72000003 -68.7304
55.195 -0.72000003 -69.259598
55.860001 -0.72000003 -69.891403
56.525002 -0.72000003 -70.703201
57.189999 -0.72000003 -71.531197
57.855 -0.72000003 -72.825401
58.52 -0.72000003 -inf
59.185001 -0.72000003 -inf
59.849998 -0.72000003 -inf
60.514999 -0.72000003 -inf
61.18 -0.72000003 -inf
-65.169998 0 -inf
-64.504997 0 -inf
-63.84 0 -inf
-63.174999 0 -inf
-62.509998 0 -inf
-61.845001 0 -inf
-61.18 0 -inf
-60.514999 0 -inf
-59.849998 0 -inf
-59.185001 0 -inf
-58.52 0 -61.966
-57.855 0 -60.785198
-57.189999 0 -59.827599
-56.525002 0 -58.902401
-55.860001 0 -58.351601
-55.195 0 -57.7486
-54.529999 0 -57.25
-53.865002 0 -56.940399
-53.200001 0 -56.614601
-52.535 0 -56.204201
-51.869999 0 -55.7038
-51.205002 0 -55.540001
-50.540001 0 -55.122398
-49.875 0 -54.751598
-49.209999 0 -54.560799
-48.544998 0 -53.995602
-47.880001 0 -53.9128
-47.215 0 -54.020802
-46.549999 0 -54.352001
-45.884998 0 -53.738201
-45.220001 0 -53.084801
-44.555 0 -52.733799
-43.889999 0 -52.0336
-43.224998 0 -51.954399
-42.560001 0 -51.472
-41.895 0 -51.194801
-41.23 0 -50.634998
-40.564999 0 -50.41
-39.900002 0 -50.132801
-39.235001 0 -49.929401
-38.57 0 -49.7962
-37.904999 0 -49.0816
-37.240002 0 -49.045601
-36.575001 0 -48.959202
-35.91 0 -48.482201
-35.244999 0 -48.845798
-34.580002 0 -48.241001
-33.915001 0 -47.569599
-33.25 0 -47.310398
-32.584999 0 -47.0476
-31.92 0 -46.764999
-31.254999 0 -46.462601
-30.59 0 -46.482399
-29.924999 0 -46.251999
-29.26 0 -46.048599
-28.594999 0 -46.066601
-27.93 0 -45.568001
-27.264999 0 -45.593201
-26.6 0 -45.4492
-25.934999 0 -45.073002
-25.27 0 -44.687801
-24.605 0 -44.905602
-23.940001 0 -44.918201
-23.275 0 -44.054199
-22.610001 0 -43.948002
-21.945 0 -43.715801
-21.280001 0 -43.4062
-20.615 0 -43.3288
-19.950001 0 -43.125401
-19.285 0 -43.015598
-18.620001 0 -42.859001
-17.955 0 -42.628601
-17.290001 0 -42.144402
-16.625 0 -41.982399
-15.96 0 -41.903198
-15.295 0 -41.777199
-14.63 0 -41.5
-13.965 0 -41.0158
-13.3 0 -40.981602
-12.635 0 -40.699001
-11.97 0 -40.814201
-11.305 0 -40.4002
-10.64 0 -40.628799
-9.9750004 0 -40.3624
-9.3100004 0 -40.402
-8.6450005 0 -40.222
-7.98 0 -39.979
-7.3150001 0 -39.9772
-6.6500001 0 -39.739601
-5.9850001 0 -39.291401
-5.3200002 0 -39.298599
-4.6550002 0 -39.3256
-3.99 0 -39.331001
-3.325 0 -39.541599
-2.6600001 0 -39.116798
-1.995 0 -38.902599
-1.33 0 -38.872002
-0.66500002 0 -38.465199
0 0 -38.702801
0.66500002 0 -38.612801
1.33 0 -38.566002
1.995 0 -38.679401
2.6600001 0 -38.5462
3.325 0 -38.416599
3.99 0 -38.5714
4.6550002 0 -38.519199
5.3200002 0 -38.450802
5.9850001 0 -38.549801
6.6500001 0 -38.5858
7.3150001 0 -38.4958
7.98 0 -38.681198
8.6450005 0 -38.592999
9.3100004 0 -38.564201
9.9750004 0 -38.769402
10.64 0 -38.780201
11.305 0 -39.257198
11.97 0 -39.217602
12.635 0 -39.4048
13.3 0 -39.3148
13.965 0 -39.714401
14.63 0 -39.923199
15.295 0 -40.0564
15.96 0 -40.607201
16.625 0 -40.952801
17.290001 0 -41.2318
17.955 0 -41.579201
18.620001 0 -41.996799
19.285 0 -42.013
19.950001 0 -42.542198
20.615 0 -43.028198
21.280001 0 -43.028198
21.945 0 -43.274799
22.610001 0 -43.616798
23.275 0 -43.687
23.940001 0 -43.848999
24.605 0 -44.264801
25.27 0 -44.632
25.934999 0 -44.9002
26.6 0 -45.377201
27.264999 0 -45.596802
27.93 0 -46.660599
28.594999 0 -47.638
29.26 0 -48.457001
29.924999 0 -49.180599
30.59 0 -49.839401
31.254999 0 -49.965401
31.92 0 -50.377602
32.584999 0 -50.557598
33.25 0 -50.584599
33.915001 0 -51.147999
34.580002 0 -51.358601
35.244999 0 -51.868
35.91 0 -52.411598
36.575001 0 -53.023602
37.240002 0 -53.514999
37.904999 0 -54.164799
38.57 0 -54.9226
39.235001 0 -55.399601
39.900002 0 -56.045799
40.564999 0 -56.409401
41.23 0 -56.971001
41.895 0 -57.784599
42.560001 0 -57.7882
43.224998 0 -58.355202
43.889999 0 -59.096802
44.555 0 -59.633202
45.220001 0 -60.119202
45.884998 0 -60.3964
46.549999 0 -60.8536
47.215 0 -61.327
47.880001 0 -62.3242
48.544998 0 -63.1576
49.209999 0 -63.5518
49.875 0 -64
50.540001 0 -64.772202
51.205002 0 -66.053802
51.869999 0 -66.235603
52.535 0 -66.878197
53.200001 0 -67.382202
53.865002 0 -67.915001
54.529999 0 -68.791603
55.195 0 -69.400002
55.860001 0 -69.894997
56.525002 0 -70.613197
57.189999 0 -71.588799
57.855 0 -72.9496
58.52 0 -inf
59.185001 0 -inf
59.849998 0 -inf
60.514999 0 -inf
61.18 0 -inf
-65.169998 0.72000003 -inf
-64.504997 0.72000003 -inf
-63.84 0.72000003 -inf
-63.174999 0.72000003 -inf
-62.509998 0.72000003 -inf
-61.845001 0.72000003 -inf
-61.18 0.72000003 -inf
-60.514999 0.72000003 -inf
-59.849998 0.72000003 -inf
-59.185001 0.72000003 -inf
-58.52 0.72000003 -62.385399
-57.855 0.72000003 -61.002998
-57.189999 0.72000003 -60.288399
-56.525002 0.72000003 -59.3092
-55.860001 0.72000003 -58.675598
-55.195 0.72000003 -58.130199
-54.529999 0.72000003 -57.537998
-53.865002 0.72000003 -57.055599
-53.200001 0.72000003 -56.764
-52.535 0.72000003 -56.2906
-51.869999 0.72000003 -56.0242
-51.205002 0.72000003 -55.5238
-50.540001 0.72000003 -55.097198
-49.875 0.72000003 -55.0882
-49.209999 0.72000003 -54.751598
-48.544998 0.72000003 -54.73
-47.880001 0.72000003 -54.368198
-47.215 0.72000003 -54.256599
-46.549999 0.72000003 -54.161201
-45.884998 0.72000003 -53.808399
-45.220001 0.72000003 -53.180199
-44.555 0.72000003 -52.7356
-43.889999 0.72000003 -52.294601
-43.224998 0.72000003 -51.963402
-42.560001 0.72000003 -51.876999
-41.895 0.72000003 -51.250599
-41.23 0.72000003 -50.977001
-40.564999 0.72000003 -51.000401
-39.900002 0.72000003 -50.541401
-39.235001 0.72000003 -49.997799
-38.57 0.72000003 -49.956402
-37.904999 0.72000003 -49.805199
-37.240002 0.72000003 -49.2472
-36.575001 0.72000003 -49.193199
-35.91 0.72000003 -48.847599
-35.244999 0.72000003 -48.944801
-34.580002 0.72000003 -48.1222
-33.915001 0.72000003 -47.872002
-33.25 0.72000003 -47.449001
-32.584999 0.72000003 -47.5336
-31.92 0.72000003 -47.128601
-31.254999 0.72000003 -46.669601
-30.59 0.72000003 -46.772202
-29.924999 0.72000003 -46.7794
-29.26 0.72000003 -46.7038
-28.594999 0.72000003 -46.158401
-27.93 0.72000003 -46.018002
-27.264999 0.72000003 -45.877602
-26.6 0.72000003 -45.677799
-25.934999 0.72000003 -45.208
-25.27 0.72000003 -45.089199
-24.605 0.72000003 -44.6968
-23.940001 0.72000003 -44.299
-23.275 0.72000003 -44.356602
-22.610001 0.72000003 -44.4034
-21.945 0.72000003 -43.794998
-21.280001 0.72000003 -43.435001
-20.615 0.72000003 -43.424198
-19.950001 0.72000003 -43.2766
-19.285 0.72000003 -43.327
-18.620001 0.72000003 -42.963402
-17.955 0.72000003 -42.603401
-17.290001 0.72000003 -42.338799
-16.625 0.72000003 -42.110199
-15.96 0.72000003 -42.002201
-15.295 0.72000003 -41.734001
-14.63 0.72000003 -41.491001
-13.965 0.72000003 -41.136398
-13.3 0.72000003 -40.951
-12.635 0.72000003 -40.862801
-11.97 0.72000003 -41.23
-11.305 0.72000003 -40.711601
-10.64 0.72000003 -40.423599
-9.9750004 0.72000003 -40.2328
-9.3100004 0.72000003 -40.006001
-8.6450005 0.72000003 -39.8638
-7.98 0.72000003 -40.133801
-7.3150001 0.72000003 -40.211201
-6.6500001 0.72000003 -39.9646
-5.9850001 0.72000003 -39.5434
-5.3200002 0.72000003 -39.2626
-4.6550002 0.72000003 -39.214001
-3.99 0.72000003 -39.316601
-3.325 0.72000003 -39.509201
-2.6600001 0.72000003 -39.258999
-1.995 0.72000003 -39.145599
-1.33 0.72000003 -38.911598
-0.66500002 0.72000003 -38.1628
0 0.72000003 -38.378799
0.66500002 0.72000003 -38.632599
1.33 0.72000003 -38.618198
1.995 0.72000003 -38.782001
2.6600001 0.72000003 -38.594799
3.325 0.72000003 -38.384201
3.99 0.72000003 -38.391399
4.6550002 0.72000003 -38.153801
5.3200002 0.72000003 -38.245602
5.9850001 0.72000003 -38.366199
6.6500001 0.72000003 -38.431
7.3150001 0.72000003 -38.431
7.98 0.72000003 -38.492199
8.6450005 0.72000003 -38.569599
9.3100004 0.72000003 -38.474201
9.9750004 0.72000003 -38.582199
10.64 0.72000003 -38.922401
11.305 0.72000003 -39.208599
11.97 0.72000003 -39.294998
12.635 0.72000003 -39.367001
13.3 0.72000003 -39.403
13.965 0.72000003 -39.6334
14.63 0.72000003 -39.599201
15.295 0.72000003 -39.892601
15.96 0.72000003 -40.266998
16.625 0.72000003 -40.722401
17.290001 0.72000003 -40.942001
17.955 0.72000003 -41.445999
18.620001 0.72000003 -41.784401
19.285 0.72000003 -41.975201
19.950001 0.72000003 -42.439602
20.615 0.72000003 -42.7798
21.280001 0.72000003 -42.979599
21.945 0.72000003 -43.056999
22.610001 0.72000003 -43.335999
23.275 0.72000003 -43.695999
23.940001 0.72000003 -43.9678
24.605 0.72000003 -44.407001
25.27 0.72000003 -44.635601
25.934999 0.72000003 -44.9146
26.6 0.72000003 -44.876801
27.264999 0.72000003 -45.112598
27.93 0.72000003 -46.055801
28.594999 0.72000003 -47.5984
29.26 0.72000003 -48.005199
29.924999 0.72000003 -48.588402
30.59 0.72000003 -49.508202
31.254999 0.72000003 -49.904202
31.92 0.72000003 -50.044601
32.584999 0.72000003 -50.152599
33.25 0.72000003 -51.083199
33.915001 0.72000003 -51.092201
34.580002 0.72000003 -51.542198
35.244999 0.72000003 -51.799599
35.91 0.72000003 -52.512402
36.575001 0.72000003 -53.277401
37.240002 0.72000003 -53.597801
37.904999 0.72000003 -54.119801
38.57 0.72000003 -54.762402
39.235001 0.72000003 -55.419399
39.900002 0.72000003 -56.015202
40.564999 0.72000003 -56.425598
41.23 0.72000003 -57.118599
41.895 0.72000003 -57.656799
42.560001 0.72000003 -58.090599
43.224998 0.72000003 -58.749401
43.889999 0.72000003 -59.426201
44.555 0.72000003 -59.739399
45.220001 0.72000003 -60.589001
45.884998 0.72000003 -60.934601
46.549999 0.72000003 -61.112801
47.215 0.72000003 -61.550201
47.880001 0.72000003 -62.356602
48.544998 0.72000003 -63.146801
49.209999 0.72000003 -63.524799
49.875 0.72000003 -63.958599
50.540001 0.72000003 -64.777603
51.205002 0.72000003 -65.607399
51.869999 0.72000003 -66.514603
52.535 0.72000003 -67.150002
53.200001 0.72000003 -67.344398
53.865002 0.72000003 -68.114799
54.529999 0.72000003 -68.645798
55.195 0.72000003 -69.405403
55.860001 0.72000003 -70.062401
56.525002 0.72000003 -70.777
57.189999 0.72000003 -71.851601
57.855 0.72000003 -73.181801
58.52 0.72000003 -74.283401
59.185001 0.72000003 -inf
59.849998 0.72000003 -inf
60.514999 0.72000003 -inf
61.18 0.72000003 -inf
-65.169998 1.4400001 -inf
-64.504997 1.4400001 -inf
-63.84 1.4400001 -inf
-63.174999 1.4400001 -inf
-62.509998 1.4400001 -inf
-61.845001 1.4400001 -inf
-61.18 1.4400001 -inf
-60.514999 1.4400001 -inf
-59.849998 1.4400001 -inf
-59.185001 1.4400001 -inf
-58.52 1.4400001 -inf
-57.855 1.4400001 -61.118198
-57.189999 1.4400001 -60.436001
-56.525002 1.4400001 -59.746601
-55.860001 1.4400001 -58.9132
-55.195 1.4400001 -58.2724
-54.529999 1.4400001 -57.826
-53.865002 1.4400001 -57.294998
-53.200001 1.4400001 -56.927799
-52.535 1.4400001 -56.409401
-51.869999 1.4400001 -56.0728
-51.205002 1.4400001 -55.7272
-50.540001 1.4400001 -55.129601
-49.875 1.4400001 -54.8992
-49.209999 1.4400001 -54.7174
-48.544998 1.4400001 -54.658001
-47.880001 1.4400001 -54.627399
-47.215 1.4400001 -54.316002
-46.549999 1.4400001 -54.3466
-45.884998 1.4400001 -54.1054
-45.220001 1.4400001 -54.060398
-44.555 1.4400001 -53.0326
-43.889999 1.4400001 -52.629398
-43.224998 1.4400001 -52.143398
-42.560001 1.4400001 -51.682598
-41.895 1.4400001 -51.299198
-41.23 1.4400001 -50.9104
-40.564999 1.4400001 -50.833
-39.900002 1.4400001 -50.341599
-39.235001 1.4400001 -50.2174
-38.57 1.4400001 -49.7206
-37.904999 1.4400001 -49.176998
-37.240002 1.4400001 -49.090599
-36.575001 1.4400001 -48.910599
-35.91 1.4400001 -49.038399
-35.244999 1.4400001 -48.552399
-34.580002 1.4400001 -48.689201
-33.915001 1.4400001 -48.158199
-33.25 1.4400001 -47.646999
-32.584999 1.4400001 -47.639801
-31.92 1.4400001 -47.447201
-31.254999 1.4400001 -47.166401
-30.59 1.4400001 -46.941399
-29.924999 1.4400001 -46.930599
-29.26 1.4400001 -46.802799
-28.594999 1.4400001 -46.6894
-27.93 1.4400001 -46.156601
-27.264999 1.4400001 -46.1152
-26.6 1.4400001 -45.965801
-25.934999 1.4400001 -45.530201
-25.27 1.4400001 -45.101799
-24.605 1.4400001 -44.577999
-23.940001 1.4400001 -44.8606
-23.275 1.4400001 -44.3242
-22.610001 1.4400001 -43.8634
-21.945 1.4400001 -43.848999
-21.280001 1.4400001 -43.739201
-20.615 1.4400001 -43.632999
-19.950001 1.4400001 -43.425999
-19.285 1.4400001 -43.242401
-18.620001 1.4400001 -42.903999
-17.955 1.4400001 -42.669998
-17.290001 1.4400001 -42.466599
-16.625 1.4400001 -42.383801
-15.96 1.4400001 -42.1534
-15.295 1.4400001 -41.9338
-14.63 1.4400001 -41.701599
-13.965 1.4400001 -41.262402
-13.3 1.4400001 -41.4856
-12.635 1.4400001 -41.428001
-11.97 1.4400001 -41.030201
-11.305 1.4400001 -40.589199
-10.64 1.4400001 -40.396599
-9.9750004 1.4400001 -40.2472
-9.3100004 1.4400001 -40.263401
-8.6450005 1.4400001 -40.4002
-7.98 1.4400001 -40.391201
-7.3150001 1.4400001 -39.856602
-6.6500001 1.4400001 -39.952
-5.9850001 1.4400001 -39.644199
-5.3200002 1.4400001 -39.3274
-4.6550002 1.4400001 -39.3256
-3.99 1.4400001 -39.098801
-3.325 1.4400001 -39.537998
-2.6600001 1.4400001 -39.323799
-1.995 1.4400001 -39.388599
-1.33 1.4400001 -38.850399
-0.66500002 1.4400001 -38.0242
0 1.4400001 -38.153801
0.66500002 1.4400001 -38.366199
1.33 1.4400001 -38.373402
1.995 1.4400001 -38.441799
2.6600001 1.4400001 -38.283401
3.325 1.4400001 -38.465199
3.99 1.4400001 -38.247398
4.6550002 1.4400001 -38.326599
5.3200002 1.4400001 -38.425598
5.9850001 1.4400001 -38.425598
6.6500001 1.4400001 -38.396801
7.3150001 1.4400001 -38.339199
7.98 1.4400001 -38.580399
8.6450005 1.4400001 -38.6884
9.3100004 1.4400001 -38.629002
9.9750004 1.4400001 -38.562401
10.64 1.4400001 -38.783798
11.305 1.4400001 -38.8936
11.97 1.4400001 -39.129398
12.635 1.4400001 -39.624401
13.3 1.4400001 -39.5434
13.965 1.4400001 -39.345402
14.63 1.4400001 -39.334599
15.295 1.4400001 -39.476799
15.96 1.4400001 -40.153599
16.625 1.4400001 -40.326401
17.290001 1.4400001 -40.868198
17.955 1.4400001 -41.163399
18.620001 1.4400001 -41.559399
19.285 1.4400001 -41.778999
19.950001 1.4400001 -42.2812
20.615 1.4400001 -42.526001
21.280001 1.4400001 -42.723999
21.945 1.4400001 -42.882401
22.610001 1.4400001 -43.004799
23.275 1.4400001 -43.355801
23.940001 1.4400001 -43.913799
24.605 1.4400001 -44.1208
25.27 1.4400001 -44.4772
25.934999 1.4400001 -44.875
26.6 1.4400001 -45.019001
27.264999 1.4400001 -45.047798
27.93 1.4400001 -45.767799
28.594999 1.4400001 -47.220402
29.26 1.4400001 -47.760399
29.924999 1.4400001 -48.2752
30.59 1.4400001 -49.241798
31.254999 1.4400001 -49.8592
31.92 1.4400001 -50.3848
32.584999 1.4400001 -50.318199
33.25 1.4400001 -50.343399
33.915001 1.4400001 -50.877998
34.580002 1.4400001 -51.9058
35.244999 1.4400001 -51.868
35.91 1.4400001 -52.433201
36.575001 1.4400001 -53.0452
37.240002 1.4400001 -53.588799
37.904999 1.4400001 -54.362801
38.57 1.4400001 -54.870399
39.235001 1.4400001 -55.392399
39.900002 1.4400001 -55.943199
40.564999 1.4400001 -56.602001
41.23 1.4400001 -57.329201
41.895 1.4400001 -57.912399
42.560001 1.4400001 -58.391201
43.224998 1.4400001 -59.563
43.889999 1.4400001 -59.9356
44.555 1.4400001 -60.223598
45.220001 1.4400001 -60.594398
45.884998 1.4400001 -61.242401
46.549999 1.4400001 -61.269402
47.215 1.4400001 -61.7644
47.880001 1.4400001 -62.347599
48.544998 1.4400001 -62.8498
49.209999 1.4400001 -63.442001
49.875 1.4400001 -63.958599
50.540001 1.4400001 -64.903603
51.205002 1.4400001 -65.596603
51.869999 1.4400001 -66.212196
52.535 1.4400001 -67.252602
53.200001 1.4400001 -67.411003
53.865002 1.4400001 -68.044601
54.529999 1.4400001 -68.820396
55.195 1.4400001 -69.626801
55.860001 1.4400001 -70.325203
56.525002 1.4400001 -71.199997
57.189999 1.4400001 -72.265602
57.855 1.4400001 -73.304199
58.52 1.4400001 -74.241997
59.185001 1.4400001 -inf
59.849998 1.4400001 -inf
60.514999 1.4400001 -inf
61.18 1.4400001 -inf
-65.169998 2.1600001 -inf
-64.504997 2.1600001 -inf
-63.84 2.1600001 -inf
-63.174999 2.1600001 -inf
-62.509998 2.1600001 -inf
-61.845001 2.1600001 -inf
-61.18 2.1600001 -inf
-60.514999 2.1600001 -inf
-59.849998 2.1600001 -inf
-59.185001 2.1600001 -inf
-58.52 2.1600001 -inf
-57.855 2.1600001 -61.420601
-57.189999 2.1600001 -60.684399
-56.525002 2.1600001 -59.872601
-55.860001 2.1600001 -59.1562
-55.195 2.1600001 -58.5658
-54.529999 2.1600001 -58.063599
-53.865002 2.1600001 -57.644199
-53.200001 2.1600001 -57.061001
-52.535 2.1600001 -56.618198
-51.869999 2.1600001 -56.296001
-51.205002 2.1600001 -55.840599
-50.540001 2.1600001 -55.486
-49.875 2.1600001 -55.2052
-49.209999 2.1600001 -55.122398
-48.544998 2.1600001 -54.8974
-47.880001 2.1600001 -54.7066
-47.215 2.1600001 -54.825401
-46.549999 2.1600001 -54.512199
-45.884998 2.1600001 -54.866798
-45.220001 2.1600001 -53.833599
-44.555 2.1600001 -53.1712
-43.889999 2.1600001 -52.632999
-43.224998 2.1600001 -52.031799
-42.560001 2.1600001 -52.010201
-41.895 2.1600001 -51.601601
-41.23 2.1600001 -51.333401
-40.564999 2.1600001 -51.243401
-39.900002 2.1600001 -51.030998
-39.235001 2.1600001 -50.5396
-38.57 2.1600001 -49.999599
-37.904999 2.1600001 -49.943802
-37.240002 2.1600001 -49.684601
-36.575001 2.1600001 -49.223801
-35.91 2.1600001 -49.216599
-35.244999 2.1600001 -48.950199
-34.580002 2.1600001 -48.466
-33.915001 2.1600001 -48.494801
-33.25 2.1600001 -48.3004
-32.584999 2.1600001 -48.203201
-31.92 2.1600001 -47.949402
-31.254999 2.1600001 -47.510201
-30.59 2.1600001 -47.2402
-29.924999 2.1600001 -46.808201
-29.26 2.1600001 -46.878399
-28.594999 2.1600001 -46.453602
-27.93 2.1600001 -46.725399
-27.264999 2.1600001 -46.174599
-26.6 2.1600001 -45.765999
-25.934999 2.1600001 -45.7696
-25.27 2.1600001 -45.189999
-24.605 2.1600001 -45.332199
-23.940001 2.1600001 -45.013599
-23.275 2.1600001 -44.918201
-22.610001 2.1600001 -44.599602
-21.945 2.1600001 -44.124401
-21.280001 2.1600001 -43.9804
-20.615 2.1600001 -43.398998
-19.950001 2.1600001 -43.462002
-19.285 2.1600001 -43.299999
-18.620001 2.1600001 -42.9562
-17.955 2.1600001 -42.749199
-17.290001 2.1600001 -42.4342
-16.625 2.1600001 -42.389198
-15.96 2.1600001 -42.286598
-15.295 2.1600001 -41.978802
-14.63 2.1600001 -41.903198
-13.965 2.1600001 -41.555801
-13.3 2.1600001 -41.471199
-12.635 2.1600001 -41.534199
-11.97 2.1600001 -41.0158
