# .PCD v0.7 - Point Cloud Data file format
VERSION 0.7
FIELDS x y z
SIZE 4 4 4
TYPE F F F
COUNT 1 1 1
WIDTH 1850
HEIGHT 1
VIEWPOINT 0 0 0 1 0 0 0
POINTS 1850
DATA ascii
44.820999 9.3599997 -60.443199
45.486 9.3599997 -61.204601
46.151001 9.3599997 -61.993
46.816002 9.3599997 -62.201801
47.480999 9.3599997 -62.858799
48.146 9.3599997 -63.748001
48.811001 9.3599997 -65.0242
49.476002 9.3599997 -66.212196
50.140999 9.3599997 -67.6576
50.806 9.3599997 -68.633202
51.471001 9.3599997 -69.455803
52.136002 9.3599997 -69.729401
52.800999 9.3599997 -70.6474
53.466 9.3599997 -71.578003
54.131001 9.3599997 -72.244003
54.796001 9.3599997 -73.491402
55.460999 9.3599997 -74.801804
56.125999 9.3599997 -inf
56.791 9.3599997 -inf
57.456001 9.3599997 -inf
58.120998 9.3599997 -inf
58.785999 9.3599997 -inf
-60.249001 10.08 -inf
-59.584 10.08 -64.140404
-58.918999 10.08 -62.3494
-58.254002 10.08 -61.2658
-57.589001 10.08 -60.363998
-56.924 10.08 -59.388401
-56.258999 10.08 -58.648602
-55.594002 10.08 -57.732399
-54.929001 10.08 -56.855801
-54.264 10.08 -55.9324
-53.598999 10.08 -55.2826
-52.933998 10.08 -54.920799
-52.269001 10.08 -54.614799
-51.604 10.08 -54.204399
-50.938999 10.08 -54.1054
-50.273998 10.08 -53.3638
-49.609001 10.08 -52.911999
-48.944 10.08 -52.427799
-48.278999 10.08 -51.990398
-47.613998 10.08 -51.718601
-46.949001 10.08 -51.340599
-46.284 10.08 -51.065201
-45.618999 10.08 -51.047199
-44.953999 10.08 -50.824001
-44.289001 10.08 -50.510799
-43.624001 10.08 -50.784401
-42.959 10.08 -50.8312
-42.293999 10.08 -51.264999
-41.629002 10.08 -51.1138
-40.964001 10.08 -51.401798
-40.299 10.08 -51.007599
-39.633999 10.08 -50.8564
-38.969002 10.08 -51.346001
-38.304001 10.08 -51.5116
-37.639 10.08 -51.959801
-36.973999 10.08 -52.092999
-36.308998 10.08 -52.208199
-35.644001 10.08 -51.625
-34.979 10.08 -51.898602
-34.313999 10.08 -51.632198
-33.648998 10.08 -51.137199
-32.984001 10.08 -50.800598
-32.319 10.08 -50.741199
-31.653999 10.08 -50.492802
-30.989 10.08 -50.330799
-30.323999 10.08 -50.093201
-29.659 10.08 -49.981602
-28.993999 10.08 -48.950199
-28.329 10.08 -48.4174
-27.664 10.08 -48.048401
-26.999001 10.08 -47.881001
-26.334 10.08 -47.123199
-25.669001 10.08 -47.195202
-25.004 10.08 -46.912601
-24.339001 10.08 -46.6912
-23.674 10.08 -46.7272
-23.009001 10.08 -46.010799
-22.344 10.08 -45.918999
-21.679001 10.08 -45.595001
-21.014 10.08 -45.355598
-20.349001 10.08 -45.260201
-19.684 10.08 -44.864201
-19.018999 10.08 -44.268398
-18.354 10.08 -44.2864
-17.688999 10.08 -43.9534
-17.024 10.08 -43.969601
-16.358999 10.08 -43.2784
-15.694 10.08 -43.1632
-15.029 10.08 -42.976002
-14.364 10.08 -42.841
-13.699 10.08 -42.679001
-13.034 10.08 -42.715
-12.369 10.08 -42.666401
-11.704 10.08 -42.403599
-11.039 10.08 -42.250599
-10.374 10.08 -42.144402
-9.7089996 10.08 -41.876202
-9.0439997 10.08 -41.786201
-8.3789997 10.08 -41.978802
-7.7140002 10.08 -41.303799
-7.0489998 10.08 -41.413601
-6.3839998 10.08 -41.2444
-5.7189999 10.08 -41.2948
-5.0539999 10.08 -40.952801
-4.3889999 10.08 -40.869999
-3.724 10.08 -40.664799
-3.059 10.08 -40.8088
-2.3940001 10.08 -40.556801
-1.729 10.08 -40.486599
-1.064 10.08 -40.483002
-0.39899999 10.08 -40.4758
0.266 10.08 -40.895199
0.93099999 10.08 -41.238998
1.596 10.08 -41.4604
2.2609999 10.08 -41.663799
2.9260001 10.08 -41.928398
3.5910001 10.08 -41.617001
4.256 10.08 -41.224602
4.921 10.08 -40.8214
5.586 10.08 -40.240002
6.2509999 10.08 -40.052799
6.9159999 10.08 -39.962799
7.5809999 10.08 -40.0168
8.2460003 10.08 -39.865601
8.9110003 10.08 -40.150002
9.5760002 10.08 -40.4758
10.241 10.08 -40.189602
10.906 10.08 -40.099602
11.571 10.08 -39.948399
12.236 10.08 -39.845798
12.901 10.08 -40.317402
13.566 10.08 -41.390202
14.231 10.08 -41.456799
14.896 10.08 -40.5676
15.561 10.08 -40.070801
16.226 10.08 -40.403801
16.891001 10.08 -40.383999
17.556 10.08 -39.757599
18.221001 10.08 -40.1068
18.886 10.08 -40.245399
19.551001 10.08 -40.198601
20.216 10.08 -40.288601
20.881001 10.08 -40.958199
21.546 10.08 -40.729599
22.211 10.08 -40.383999
22.875999 10.08 -40.409199
23.541 10.08 -41.037399
24.205999 10.08 -41.2444
24.871 10.08 -41.6782
25.535999 10.08 -42.110199
26.201 10.08 -42.594398
26.865999 10.08 -43.345001
27.531 10.08 -43.573601
28.195999 10.08 -44.372799
28.861 10.08 -44.399799
29.525999 10.08 -45.085602
30.191 10.08 -45.742599
30.856001 10.08 -45.699402
31.521 10.08 -45.699402
32.186001 10.08 -45.951401
32.851002 10.08 -46.354599
33.515999 10.08 -46.874802
34.181 10.08 -47.3158
34.846001 10.08 -47.859402
35.511002 10.08 -48.426399
36.175999 10.08 -48.8386
36.841 10.08 -49.438
37.506001 10.08 -49.967201
38.171001 10.08 -50.503601
38.835999 10.08 -53.497002
39.500999 10.08 -55.153
40.166 10.08 -56.159199
40.831001 10.08 -57.293201
41.495998 10.08 -58.123001
42.160999 10.08 -58.563999
42.826 10.08 -59.1436
43.491001 10.08 -59.5882
44.155998 10.08 -60.3064
44.820999 10.08 -60.810398
45.486 10.08 -61.794998
46.151001 10.08 -62.297199
46.816002 10.08 -62.662601
47.480999 10.08 -63.2314
48.146 10.08 -64.120598
48.811001 10.08 -65.322998
49.476002 10.08 -66.347198
50.140999 10.08 -67.641403
50.806 10.08 -68.483803
51.471001 10.08 -69.230797
52.136002 10.08 -69.913002
52.800999 10.08 -71.124397
53.466 10.08 -72.238602
54.131001 10.08 -72.926201
54.796001 10.08 -73.612
55.460999 10.08 -74.468803
56.125999 10.08 -76.211197
56.791 10.08 -inf
57.456001 10.08 -inf
58.120998 10.08 -inf
58.785999 10.08 -inf
-60.249001 10.8 -inf
-59.584 10.8 -64.525597
-58.918999 10.8 -62.585201
-58.254002 10.8 -61.242401
-57.589001 10.8 -60.376598
-56.924 10.8 -59.408199
-56.258999 10.8 -58.558601
-55.594002 10.8 -57.408401
-54.929001 10.8 -56.706402
-54.264 10.8 -55.772202
-53.598999 10.8 -55.1278
-52.933998 10.8 -54.82
-52.269001 10.8 -54.5644
-51.604 10.8 -54.292599
-50.938999 10.8 -53.9002
-50.273998 10.8 -53.667999
-49.609001 10.8 -52.859798
-48.944 10.8 -52.335999
-48.278999 10.8 -51.7528
-47.613998 10.8 -51.490002
-46.949001 10.8 -51.371201
-46.284 10.8 -51.232601
-45.618999 10.8 -50.930199
-44.953999 10.8 -50.570202
-44.289001 10.8 -50.503601
-43.624001 10.8 -50.544998
-42.959 10.8 -50.735802
-42.293999 10.8 -50.9716
-41.629002 10.8 -50.967999
-40.964001 10.8 -51.200199
-40.299 10.8 -51.272202
-39.633999 10.8 -50.663799
-38.969002 10.8 -51.200199
-38.304001 10.8 -51.799599
-37.639 10.8 -52.562801
-36.973999 10.8 -52.0354
-36.308998 10.8 -52.345001
-35.644001 10.8 -51.927399
-34.979 10.8 -51.4594
-34.313999 10.8 -51.202
-33.648998 10.8 -50.8438
-32.984001 10.8 -50.9356
-32.319 10.8 -50.687199
-31.653999 10.8 -50.131001
-30.989 10.8 -50.138199
-30.323999 10.8 -49.740398
-29.659 10.8 -49.598202
-28.993999 10.8 -49.457802
-28.329 10.8 -48.730598
-27.664 10.8 -48.970001
-26.999001 10.8 -47.958401
-26.334 10.8 -47.6362
-25.669001 10.8 -47.344601
-25.004 10.8 -47.0746
-24.339001 10.8 -46.482399
-23.674 10.8 -46.658798
-23.009001 10.8 -45.928001
-22.344 10.8 -45.787601
-21.679001 10.8 -45.580601
-21.014 10.8 -45.4636
-20.349001 10.8 -44.9254
-19.684 10.8 -44.624802
-19.018999 10.8 -44.135201
-18.354 10.8 -44.153198
-17.688999 10.8 -43.555599
-17.024 10.8 -43.488998
-16.358999 10.8 -43.5448
-15.694 10.8 -43.042599
-15.029 10.8 -43.204601
-14.364 10.8 -42.992199
-13.699 10.8 -42.731201
-13.034 10.8 -42.230801
-12.369 10.8 -42.3316
-11.704 10.8 -42.466599
-11.039 10.8 -41.714199
-10.374 10.8 -41.836601
-9.7089996 10.8 -42.142601
-9.0439997 10.8 -41.861801
-8.3789997 10.8 -41.5378
-7.7140002 10.8 -41.415401
-7.0489998 10.8 -41.840199
-6.3839998 10.8 -41.328999
-5.7189999 10.8 -41.276798
-5.0539999 10.8 -40.8484
-4.3889999 10.8 -40.871799
-3.724 10.8 -40.479401
-3.059 10.8 -40.7062
-2.3940001 10.8 -40.677399
-1.729 10.8 -40.652199
-1.064 10.8 -40.582001
-0.39899999 10.8 -40.479401
0.266 10.8 -40.812401
0.93099999 10.8 -41.1688
1.596 10.8 -41.381199
2.2609999 10.8 -41.59
2.9260001 10.8 -41.534199
3.5910001 10.8 -41.032001
4.256 10.8 -40.8988
4.921 10.8 -40.699001
5.586 10.8 -40.3102
6.2509999 10.8 -40.049198
6.9159999 10.8 -40.189602
7.5809999 10.8 -40.105
8.2460003 10.8 -40.011398
8.9110003 10.8 -40.214802
9.5760002 10.8 -40.198601
10.241 10.8 -39.989799
10.906 10.8 -40.2994
11.571 10.8 -40.205799
12.236 10.8 -39.8638
12.901 10.8 -39.8638
13.566 10.8 -40.409199
14.231 10.8 -40.727798
14.896 10.8 -40.429001
15.561 10.8 -40.060001
16.226 10.8 -40.266998
16.891001 10.8 -40.105
17.556 10.8 -39.6586
18.221001 10.8 -39.930401
18.886 10.8 -40.0564
19.551001 10.8 -40.596401
20.216 10.8 -40.155399
20.881001 10.8 -40.099602
21.546 10.8 -40.351601
22.211 10.8 -40.443401
22.875999 10.8 -40.619801
23.541 10.8 -40.672001
24.205999 10.8 -41.125599
24.871 10.8 -41.5882
25.535999 10.8 -41.9842
26.201 10.8 -42.515202
26.865999 10.8 -43.056999
27.531 10.8 -43.575401
28.195999 10.8 -43.8922
28.861 10.8 -44.0578
29.525999 10.8 -44.691399
30.191 10.8 -45.200802
30.856001 10.8 -45.4258
31.521 10.8 -45.366402
32.186001 10.8 -45.868599
32.851002 10.8 -46.527401
33.515999 10.8 -46.745201
34.181 10.8 -47.263599
34.846001 10.8 -47.895401
35.511002 10.8 -48.4786
36.175999 10.8 -48.9538
36.841 10.8 -49.528
37.506001 10.8 -49.646801
38.171001 10.8 -50.541401
38.835999 10.8 -53.2864
39.500999 10.8 -54.614799
40.166 10.8 -56.0494
40.831001 10.8 -57.16
41.495998 10.8 -57.930401
42.160999 10.8 -58.457802
42.826 10.8 -59.120201
43.491001 10.8 -59.751999
44.155998 10.8 -60.326199
44.820999 10.8 -61.0858
45.486 10.8 -62.236
46.151001 10.8 -62.7202
46.816002 10.8 -63.328602
47.480999 10.8 -63.958599
48.146 10.8 -64.525597
48.811001 10.8 -65.448997
49.476002 10.8 -66.305801
50.140999 10.8 -67.231003
50.806 10.8 -67.999603
51.471001 10.8 -69.025597
52.136002 10.8 -69.639397
52.800999 10.8 -71.077599
53.466 10.8 -72.082001
54.131001 10.8 -72.958603
54.796001 10.8 -73.727203
55.460999 10.8 -74.490402
56.125999 10.8 -75.935799
56.791 10.8 -inf
57.456001 10.8 -inf
58.120998 10.8 -inf
58.785999 10.8 -inf
-60.249001 11.52 -inf
-59.584 11.52 -66.399399
-58.918999 11.52 -62.716599
-58.254002 11.52 -61.555599
-57.589001 11.52 -60.171398
-56.924 11.52 -59.237202
-56.258999 11.52 -58.319199
-55.594002 11.52 -57.102402
-54.929001 11.52 -56.3176
-54.264 11.52 -55.6408
-53.598999 11.52 -55.198002
-52.933998 11.52 -54.854198
-52.269001 11.52 -54.1576
-51.604 11.52 -53.916401
-50.938999 11.52 -53.7742
-50.273998 11.52 -53.374599
-49.609001 11.52 -53.001999
-48.944 11.52 -52.2136
-48.278999 11.52 -51.679001
-47.613998 11.52 -51.526001
-46.949001 11.52 -51.3946
-46.284 11.52 -51.007599
-45.618999 11.52 -50.663799
-44.953999 11.52 -50.570202
-44.289001 11.52 -50.5756
-43.624001 11.52 -50.352402
-42.959 11.52 -51.076
-42.293999 11.52 -51.4828
-41.629002 11.52 -50.977001
-40.964001 11.52 -50.982399
-40.299 11.52 -51.210999
-39.633999 11.52 -51.137199
-38.969002 11.52 -50.618801
-38.304001 11.52 -51.812199
-37.639 11.52 -52.292801
-36.973999 11.52 -52.4044
-36.308998 11.52 -52.103802
-35.644001 11.52 -51.7258
-34.979 11.52 -51.4324
-34.313999 11.52 -51.283001
-33.648998 11.52 -50.851002
-32.984001 11.52 -50.489201
-32.319 11.52 -51.034599
-31.653999 11.52 -49.940201
-30.989 11.52 -50.215599
-30.323999 11.52 -49.6558
-29.659 11.52 -49.268799
-28.993999 11.52 -49.090599
-28.329 11.52 -48.923199
-27.664 11.52 -48.384998
-26.999001 11.52 -47.515598
-26.334 11.52 -47.274399
-25.669001 11.52 -47.605598
-25.004 11.52 -47.180801
-24.339001 11.52 -46.584999
-23.674 11.52 -46.2556
-23.009001 11.52 -45.879398
-22.344 11.52 -45.9244
-21.679001 11.52 -45.634602
-21.014 11.52 -45.388
-20.349001 11.52 -44.9254
-19.684 11.52 -44.664398
-19.018999 11.52 -44.176601
-18.354 11.52 -43.8526
-17.688999 11.52 -43.5448
-17.024 11.52 -43.168598
-16.358999 11.52 -43.361198
-15.694 11.52 -42.614201
-15.029 11.52 -43.105598
-14.364 11.52 -42.601601
-13.699 11.52 -42.961601
-13.034 11.52 -42.625
-12.369 11.52 -42.358601
-11.704 11.52 -42.016602
-11.039 11.52 -41.483799
-10.374 11.52 -41.579201
-9.7089996 11.52 -41.5522
-9.0439997 11.52 -41.406399
-8.3789997 11.52 -41.228199
-7.7140002 11.52 -41.336201
-7.0489998 11.52 -41.280399
-6.3839998 11.52 -41.210201
-5.7189999 11.52 -41.068001
-5.0539999 11.52 -40.965401
-4.3889999 11.52 -40.724201
-3.724 11.52 -40.492001
-3.059 11.52 -40.585602
-2.3940001 11.52 -40.677399
-1.729 11.52 -40.812401
-1.064 11.52 -40.672001
-0.39899999 11.52 -40.443401
0.266 11.52 -40.884399
0.93099999 11.52 -41.0158
1.596 11.52 -41.379398
2.2609999 11.52 -41.6404
2.9260001 11.52 -41.501801
3.5910001 11.52 -40.992401
4.256 11.52 -40.798
4.921 11.52 -40.7728
5.586 11.52 -40.574799
6.2509999 11.52 -40.418201
6.9159999 11.52 -40.385799
7.5809999 11.52 -40.202202
8.2460003 11.52 -40.069
8.9110003 11.52 -40.105
9.5760002 11.52 -40.083401
10.241 11.52 -39.950199
10.906 11.52 -40.0168
11.571 11.52 -39.986198
12.236 11.52 -39.737801
12.901 11.52 -39.6586
13.566 11.52 -40.245399
14.231 11.52 -40.393002
14.896 11.52 -40.257999
15.561 11.52 -40.270599
16.226 11.52 -40.038399
16.891001 11.52 -39.8386
17.556 11.52 -40.176998
18.221001 11.52 -40.013199
18.886 11.52 -40.121201
19.551001 11.52 -40.063599
20.216 11.52 -40.573002
20.881001 11.52 -40.664799
21.546 11.52 -40.461399
22.211 11.52 -40.2994
22.875999 11.52 -40.520802
23.541 11.52 -40.500999
24.205999 11.52 -40.965401
24.871 11.52 -41.262402
25.535999 11.52 -41.881599
26.201 11.52 -42.346001
26.865999 11.52 -42.580002
27.531 11.52 -43.141602
28.195999 11.52 -43.478199
28.861 11.52 -43.7104
29.525999 11.52 -44.3512
30.191 11.52 -44.9632
30.856001 11.52 -44.745399
31.521 11.52 -45.107201
32.186001 11.52 -45.830799
32.851002 11.52 -46.324001
33.515999 11.52 -46.667801
34.181 11.52 -47.2654
34.846001 11.52 -48.014198
35.511002 11.52 -48.438999
36.175999 11.52 -49.002399
36.841 11.52 -49.675598
37.506001 11.52 -50.096802
38.171001 11.52 -51.247002
38.835999 11.52 -53.1586
39.500999 11.52 -54.148602
40.166 11.52 -55.9198
40.831001 11.52 -57.140202
41.495998 11.52 -57.8008
42.160999 11.52 -58.4272
42.826 11.52 -59.041
43.491001 11.52 -59.7952
44.155998 11.52 -60.385601
44.820999 11.52 -61.2514
45.486 11.52 -62.077599
46.151001 11.52 -62.577999
46.816002 11.52 -63.260201
47.480999 11.52 -63.895599
48.146 11.52 -64.602997
48.811001 11.52 -65.366203
49.476002 11.52 -66.163597
50.140999 11.52 -66.917801
50.806 11.52 -67.747597
51.471001 11.52 -68.636803
52.136002 11.52 -69.594398
52.800999 11.52 -70.713997
53.466 11.52 -71.768799
54.131001 11.52 -72.810997
54.796001 11.52 -73.6408
55.460999 11.52 -74.3806
56.125999 11.52 -75.656799
56.791 11.52 -76.897003
57.456001 11.52 -inf
58.120998 11.52 -inf
58.785999 11.52 -inf
-60.249001 12.24 -inf
-59.584 12.24 -66.399399
-58.918999 12.24 -65.859398
-58.254002 12.24 -61.823799
-57.589001 12.24 -60.108398
-56.924 12.24 -59.003201
-56.258999 12.24 -57.9538
-55.594002 12.24 -56.737
-54.929001 12.24 -56.130402
-54.264 12.24 -55.475201
-53.598999 12.24 -54.9856
-52.933998 12.24 -54.8326
-52.269001 12.24 -54.278198
-51.604 12.24 -53.783199
-50.938999 12.24 -53.318802
-50.273998 12.24 -53.244999
-49.609001 12.24 -52.726601
-48.944 12.24 -52.174
-48.278999 12.24 -51.889599
-47.613998 12.24 -51.570999
-46.949001 12.24 -51.252399
-46.284 12.24 -51.068802
-45.618999 12.24 -50.7826
-44.953999 12.24 -50.766399
-44.289001 12.24 -50.683601
-43.624001 12.24 -50.471199
-42.959 12.24 -50.420799
-42.293999 12.24 -50.867199
-41.629002 12.24 -50.874401
-40.964001 12.24 -50.917599
-40.299 12.24 -50.861801
-39.633999 12.24 -51.207401
-38.969002 12.24 -51.049
-38.304001 12.24 -51.2416
-37.639 12.24 -52.119999
-36.973999 12.24 -52.138
-36.308998 12.24 -51.886002
-35.644001 12.24 -51.569199
-34.979 12.24 -51.371201
-34.313999 12.24 -50.975201
-33.648998 12.24 -50.527
-32.984001 12.24 -50.391998
-32.319 12.24 -50.634998
-31.653999 12.24 -50.2048
-30.989 12.24 -49.419998
-30.323999 12.24 -49.443401
-29.659 12.24 -49.088799
-28.993999 12.24 -49.2202
-28.329 12.24 -48.591999
-27.664 12.24 -48.332802
-26.999001 12.24 -47.693802
-26.334 12.24 -47.3158
-25.669001 12.24 -47.403999
-25.004 12.24 -46.7416
-24.339001 12.24 -46.4104
-23.674 12.24 -46.469799
-23.009001 12.24 -45.8074
-22.344 12.24 -45.4114
-21.679001 12.24 -45.114399
-21.014 12.24 -45.1054
-20.349001 12.24 -44.7742
-19.684 12.24 -44.378201
-19.018999 12.24 -43.910198
-18.354 12.24 -43.694199
-17.688999 12.24 -43.613201
-17.024 12.24 -43.3018
-16.358999 12.24 -42.873402
-15.694 12.24 -42.806801
-15.029 12.24 -43.195599
-14.364 12.24 -42.754601
-13.699 12.24 -42.668201
-13.034 12.24 -42.426998
-12.369 12.24 -41.989601
-11.704 12.24 -41.7034
-11.039 12.24 -41.388401
-10.374 12.24 -41.238998
-9.7089996 12.24 -41.170601
-9.0439997 12.24 -41.158001
-8.3789997 12.24 -41.338001
-7.7140002 12.24 -41.188599
-7.0489998 12.24 -41.174198
-6.3839998 12.24 -41.077
-5.7189999 12.24 -40.803398
-5.0539999 12.24 -41.212002
-4.3889999 12.24 -40.951
-3.724 12.24 -40.776402
-3.059 12.24 -40.781799
-2.3940001 12.24 -40.855598
-1.729 12.24 -40.799801
-1.064 12.24 -40.749401
-0.39899999 12.24 -40.7584
0.266 12.24 -41.098598
0.93099999 12.24 -41.375801
1.596 12.24 -41.570202
2.2609999 12.24 -41.428001
2.9260001 12.24 -40.9762
3.5910001 12.24 -40.6702
4.256 12.24 -40.509998
4.921 12.24 -40.509998
5.586 12.24 -40.383999
6.2509999 12.24 -40.4146
6.9159999 12.24 -40.240002
7.5809999 12.24 -40.000599
8.2460003 12.24 -40.011398
8.9110003 12.24 -39.984402
9.5760002 12.24 -40.148201
10.241 12.24 -40.167999
10.906 12.24 -40.2742
11.571 12.24 -40.0042
12.236 12.24 -39.725201
12.901 12.24 -39.817001
13.566 12.24 -40.1446
14.231 12.24 -40.301201
14.896 12.24 -40.3894
15.561 12.24 -40.238201
16.226 12.24 -40.027599
16.891001 12.24 -39.946602
17.556 12.24 -40.090599
18.221001 12.24 -40.664799
18.886 12.24 -40.042
19.551001 12.24 -40.047401
20.216 12.24 -40.375
20.881001 12.24 -40.308399
21.546 12.24 -40.7332
22.211 12.24 -40.636002
22.875999 12.24 -40.8358
23.541 12.24 -40.691799
24.205999 12.24 -40.832199
24.871 12.24 -41.238998
25.535999 12.24 -41.669201
26.201 12.24 -41.951801
26.865999 12.24 -42.403599
27.531 12.24 -43.012001
28.195999 12.24 -43.458401
28.861 12.24 -43.5448
29.525999 12.24 -44.189201
30.191 12.24 -44.650002
30.856001 12.24 -44.624802
31.521 12.24 -44.9902
32.186001 12.24 -45.690399
32.851002 12.24 -46.174599
33.515999 12.24 -46.6534
34.181 12.24 -47.1106
34.846001 12.24 -47.8162
35.511002 12.24 -48.4552
36.175999 12.24 -49.076199
36.841 12.24 -49.688202
37.506001 12.24 -50.055401
38.171001 12.24 -51.264999
38.835999 12.24 -52.998402
39.500999 12.24 -54.1036
40.166 12.24 -56.089001
40.831001 12.24 -56.999802
41.495998 12.24 -57.537998
42.160999 12.24 -58.166199
42.826 12.24 -58.8466
43.491001 12.24 -59.6656
44.155998 12.24 -60.3064
44.820999 12.24 -61.0858
45.486 12.24 -61.7878
46.151001 12.24 -62.347599
46.816002 12.24 -63.028
47.480999 12.24 -63.6922
48.146 12.24 -64.350998
48.811001 12.24 -65.220398
49.476002 12.24 -65.9944
50.140999 12.24 -66.637001
50.806 12.24 -67.371399
51.471001 12.24 -68.302002
52.136002 12.24 -69.252403
52.800999 12.24 -70.364799
53.466 12.24 -71.453796
54.131001 12.24 -72.470802
54.796001 12.24 -73.4338
55.460999 12.24 -74.166397
56.125999 12.24 -75.385002
56.791 12.24 -77.147202
57.456001 12.24 -inf
58.120998 12.24 -inf
58.785999 12.24 -inf
-60.249001 12.96 -inf
-59.584 12.96 -66.876404
-58.918999 12.96 -65.911598
-58.254002 12.96 -61.903
-57.589001 12.96 -61.042599
-56.924 12.96 -59.033798
-56.258999 12.96 -57.844002
-55.594002 12.96 -56.450802
-54.929001 12.96 -55.855
-54.264 12.96 -55.2034
-53.598999 12.96 -54.965801
-52.933998 12.96 -54.746201
-52.269001 12.96 -54.1576
-51.604 12.96 -53.588799
-50.938999 12.96 -53.486198
-50.273998 12.96 -53.189201
-49.609001 12.96 -52.6744
-48.944 12.96 -52.107399
-48.278999 12.96 -51.603401
-47.613998 12.96 -51.270401
-46.949001 12.96 -51.308201
-46.284 12.96 -51.234402
-45.618999 12.96 -51.000401
-44.953999 12.96 -50.593601
-44.289001 12.96 -50.554001
-43.624001 12.96 -50.748402
-42.959 12.96 -50.735802
-42.293999 12.96 -50.699799
-41.629002 12.96 -50.8564
-40.964001 12.96 -50.851002
-40.299 12.96 -51.020199
-39.633999 12.96 -51.5242
-38.969002 12.96 -51.706001
-38.304001 12.96 -51.311798
-37.639 12.96 -52.255001
-36.973999 12.96 -52.550201
-36.308998 12.96 -51.691601
-35.644001 12.96 -51.319
-34.979 12.96 -51.403599
-34.313999 12.96 -51.065201
-33.648998 12.96 -50.761002
-32.984001 12.96 -50.543201
-32.319 12.96 -50.881599
-31.653999 12.96 -50.8312
-30.989 12.96 -50.095001
-30.323999 12.96 -49.664799
-29.659 12.96 -48.8638
-28.993999 12.96 -48.8242
-28.329 12.96 -48.251801
-27.664 12.96 -47.963799
-26.999001 12.96 -47.449001
-26.334 12.96 -47.3032
-25.669001 12.96 -47.1376
-25.004 12.96 -46.952202
-24.339001 12.96 -46.612
-23.674 12.96 -46.201599
-23.009001 12.96 -45.562599
-22.344 12.96 -45.341202
-21.679001 12.96 -45.252998
-21.014 12.96 -44.765202
-20.349001 12.96 -44.738201
-19.684 12.96 -44.1982
-19.018999 12.96 -44.191002
-18.354 12.96 -44.200001
-17.688999 12.96 -43.485401
-17.024 12.96 -43.510601
-16.358999 12.96 -43.053398
-15.694 12.96 -42.554798
-15.029 12.96 -42.731201
-14.364 12.96 -42.659199
-13.699 12.96 -42.966999
-13.034 12.96 -42.4702
-12.369 12.96 -42.0382
-11.704 12.96 -41.885201
-11.039 12.96 -41.305599
-10.374 12.96 -41.120201
-9.7089996 12.96 -41.096802
-9.0439997 12.96 -41.510799
-8.3789997 12.96 -41.005001
-7.7140002 12.96 -41.0158
-7.0489998 12.96 -40.9492
-6.3839998 12.96 -40.864601
-5.7189999 12.96 -40.871799
-5.0539999 12.96 -41.1418
-4.3889999 12.96 -41.139999
-3.724 12.96 -41.062599
-3.059 12.96 -40.979801
-2.3940001 12.96 -40.716999
-1.729 12.96 -40.6936
-1.064 12.96 -40.7332
-0.39899999 12.96 -40.877201
0.266 12.96 -41.048199
0.93099999 12.96 -41.339802
1.596 12.96 -41.185001
2.2609999 12.96 -41.073399
2.9260001 12.96 -40.7188
3.5910001 12.96 -40.495602
4.256 12.96 -40.4776
4.921 12.96 -40.531601
5.586 12.96 -40.312
6.2509999 12.96 -40.562199
6.9159999 12.96 -40.340801
7.5809999 12.96 -39.993401
8.2460003 12.96 -40.0942
8.9110003 12.96 -39.829601
9.5760002 12.96 -40.105
10.241 12.96 -40.293999
10.906 12.96 -40.090599
11.571 12.96 -40.385799
12.236 12.96 -40.034801
12.901 12.96 -39.9412
13.566 12.96 -39.8494
14.231 12.96 -40.1842
14.896 12.96 -40.0186
15.561 12.96 -39.971802
16.226 12.96 -40.027599
16.891001 12.96 -39.611801
17.556 12.96 -39.736
18.221001 12.96 -40.689999
18.886 12.96 -40.285
19.551001 12.96 -40.749401
20.216 12.96 -40.563999
20.881001 12.96 -40.486599
21.546 12.96 -40.479401
22.211 12.96 -40.798
22.875999 12.96 -40.918598
23.541 12.96 -40.763802
24.205999 12.96 -40.754799
24.871 12.96 -41.597198
25.535999 12.96 -41.546799
26.201 12.96 -41.896
26.865999 12.96 -42.131802
27.531 12.96 -42.9328
28.195999 12.96 -43.476398
28.861 12.96 -43.7644
29.525999 12.96 -43.9156
30.191 12.96 -44.3908
30.856001 12.96 -44.468201
31.521 12.96 -44.738201
32.186001 12.96 -45.440201
32.851002 12.96 -45.953201
33.515999 12.96 -46.423
34.181 12.96 -46.876598
34.846001 12.96 -47.629002
35.511002 12.96 -48.1744
36.175999 12.96 -48.959202
36.841 12.96 -49.596401
37.506001 12.96 -50.123798
38.171001 12.96 -50.953602
38.835999 12.96 -53.014599
39.500999 12.96 -54.1054
40.166 12.96 -56.083599
40.831001 12.96 -56.794601
41.495998 12.96 -57.473202
42.160999 12.96 -58.2472
42.826 12.96 -59.0284
43.491001 12.96 -59.762798
44.155998 12.96 -60.261398
44.820999 12.96 -60.959801
45.486 12.96 -61.5952
46.151001 12.96 -62.228802
46.816002 12.96 -63.0154
47.480999 12.96 -63.521198
48.146 12.96 -64.345596
48.811001 12.96 -65.087196
49.476002 12.96 -65.774803
50.140999 12.96 -66.575798
50.806 12.96 -67.411003
51.471001 12.96 -68.112999
52.136002 12.96 -68.976997
52.800999 12.96 -69.985001
53.466 12.96 -71.167603
54.131001 12.96 -72.144997
54.796001 12.96 -72.960403
55.460999 12.96 -73.838799
56.125999 12.96 -74.724403
56.791 12.96 -inf
57.456001 12.96 -inf
58.120998 12.96 -inf
58.785999 12.96 -inf
-60.249001 13.68 -inf
-59.584 13.68 -67.157204
-58.918999 13.68 -65.2798
-58.254002 13.68 -62.882198
-57.589001 13.68 -61.681599
-56.924 13.68 -59.798801
-56.258999 13.68 -57.701801
-55.594002 13.68 -56.301399
-54.929001 13.68 -55.671398
-54.264 13.68 -55.216
-53.598999 13.68 -55.097198
-52.933998 13.68 -54.7318
-52.269001 13.68 -54.3214
-51.604 13.68 -53.6716
-50.938999 13.68 -53.1964
-50.273998 13.68 -53.470001
-49.609001 13.68 -52.7374
-48.944 13.68 -52.731998
-48.278999 13.68 -51.868
-47.613998 13.68 -51.5728
-46.949001 13.68 -51.139
-46.284 13.68 -51.284801
-45.618999 13.68 -51.247002
-44.953999 13.68 -51.079601
-44.289001 13.68 -50.68
-43.624001 13.68 -50.764599
-42.959 13.68 -50.658401
-42.293999 13.68 -50.860001
-41.629002 13.68 -51.018398
-40.964001 13.68 -50.987801
-40.299 13.68 -50.824001
-39.633999 13.68 -51.283001
-38.969002 13.68 -51.1912
-38.304001 13.68 -51.590801
-37.639 13.68 -52.3162
-36.973999 13.68 -52.195599
-36.308998 13.68 -52.069599
-35.644001 13.68 -51.646599
-34.979 13.68 -51.319
-34.313999 13.68 -51.247002
-33.648998 13.68 -50.476601
-32.984001 13.68 -50.2948
-32.319 13.68 -50.469398
-31.653999 13.68 -50.2948
-30.989 13.68 -49.992401
-30.323999 13.68 -49.1716
-29.659 13.68 -49.189602
-28.993999 13.68 -48.807999
-28.329 13.68 -48.460602
-27.664 13.68 -47.785599
-26.999001 13.68 -47.8036
-26.334 13.68 -47.223999
-25.669001 13.68 -47.026001
-25.004 13.68 -47.196999
-24.339001 13.68 -46.4338
-23.674 13.68 -46.174599
-23.009001 13.68 -45.8992
-22.344 13.68 -45.742599
-21.679001 13.68 -45.371799
-21.014 13.68 -45.0028
-20.349001 13.68 -45.094601
-19.684 13.68 -44.146
-19.018999 13.68 -44.2612
-18.354 13.68 -44.1208
-17.688999 13.68 -43.507
-17.024 13.68 -43.436798
-16.358999 13.68 -43.001202
-15.694 13.68 -43.179401
-15.029 13.68 -42.722198
-14.364 13.68 -42.385601
-13.699 13.68 -42.363998
-13.034 13.68 -42.403599
-12.369 13.68 -41.8078
-11.704 13.68 -42.000401
-11.039 13.68 -41.3866
-10.374 13.68 -41.825802
-9.7089996 13.68 -41.406399
-9.0439997 13.68 -41.418999
-8.3789997 13.68 -41.23
-7.7140002 13.68 -41.0284
-7.0489998 13.68 -40.747601
-6.3839998 13.68 -40.754799
-5.7189999 13.68 -40.762001
-5.0539999 13.68 -41.107601
-4.3889999 13.68 -41.096802
-3.724 13.68 -41.0014
-3.059 13.68 -41.075199
-2.3940001 13.68 -40.794399
-1.729 13.68 -40.650398
-1.064 13.68 -40.806999
-0.39899999 13.68 -40.959999
0.266 13.68 -41.1022
0.93099999 13.68 -41.401001
1.596 13.68 -41.208401
2.2609999 13.68 -40.9006
2.9260001 13.68 -40.547798
3.5910001 13.68 -40.571201
4.256 13.68 -40.526199
4.921 13.68 -40.355202
5.586 13.68 -40.319199
6.2509999 13.68 -40.223801
6.9159999 13.68 -40.128399
7.5809999 13.68 -39.880001
8.2460003 13.68 -39.854801
8.9110003 13.68 -39.754002
9.5760002 13.68 -39.9646
10.241 13.68 -39.950199
10.906 13.68 -40.421799
11.571 13.68 -40.266998
12.236 13.68 -39.955601
12.901 13.68 -40.076199
13.566 13.68 -39.9394
14.231 13.68 -40.065399
14.896 13.68 -39.7756
15.561 13.68 -39.986198
16.226 13.68 -39.669399
16.891001 13.68 -39.9016
17.556 13.68 -39.842201
18.221001 13.68 -40.103199
18.886 13.68 -40.342602
19.551001 13.68 -40.4398
20.216 13.68 -40.884399
20.881001 13.68 -40.391201
21.546 13.68 -40.621601
22.211 13.68 -40.889801
22.875999 13.68 -40.927601
23.541 13.68 -40.995998
24.205999 13.68 -41.3074
24.871 13.68 -41.6422
25.535999 13.68 -41.914001
26.201 13.68 -42.095798
26.865999 13.68 -42.292
27.531 13.68 -42.682598
28.195999 13.68 -42.823002
28.861 13.68 -43.067799
29.525999 13.68 -43.359402
30.191 13.68 -44.243198
30.856001 13.68 -44.315201
31.521 13.68 -44.713001
32.186001 13.68 -45.269199
32.851002 13.68 -45.7192
33.515999 13.68 -46.251999
34.181 13.68 -46.8316
34.846001 13.68 -47.362598
35.511002 13.68 -48.061001
36.175999 13.68 -48.6208
36.841 13.68 -49.227402
37.506001 13.68 -49.8232
38.171001 13.68 -50.901402
38.835999 13.68 -53.201801
39.500999 13.68 -54.395199
40.166 13.68 -56.0116
40.831001 13.68 -56.884602
41.495998 13.68 -57.424599
42.160999 13.68 -58.105
42.826 13.68 -58.691799
43.491001 13.68 -59.541401
44.155998 13.68 -60.103001
44.820999 13.68 -60.736599
45.486 13.68 -61.445801
46.151001 13.68 -62.113602
46.816002 13.68 -62.757999
47.480999 13.68 -63.623798
48.146 13.68 -64.156601
48.811001 13.68 -64.836998
49.476002 13.68 -65.547997
50.140999 13.68 -66.370598
50.806 13.68 -67.182404
51.471001 13.68 -67.873596
52.136002 13.68 -68.708801
52.800999 13.68 -69.772598
53.466 13.68 -70.737396
54.131001 13.68 -71.765198
54.796001 13.68 -72.686798
55.460999 13.68 -73.514801
56.125999 13.68 -74.6614
56.791 13.68 -inf
57.456001 13.68 -inf
58.120998 13.68 -inf
58.785999 13.68 -inf
-60.249001 14.4 -inf
-59.584 14.4 -67.6054
-58.918999 14.4 -65.985397
-58.254002 14.4 -64.081001
-57.589001 14.4 -62.846199
-56.924 14.4 -62.354801
-56.258999 14.4 -57.446201
-55.594002 14.4 -56.065601
-54.929001 14.4 -55.502201
-54.264 14.4 -54.938801
-53.598999 14.4 -54.524799
-52.933998 14.4 -54.317799
-52.269001 14.4 -53.905602
-51.604 14.4 -53.378201
-50.938999 14.4 -53.131599
-50.273998 14.4 -53.216202
-49.609001 14.4 -52.694199
-48.944 14.4 -52.474602
-48.278999 14.4 -51.999401
-47.613998 14.4 -51.657398
-46.949001 14.4 -51.673599
-46.284 14.4 -51.927399
-45.618999 14.4 -52.0714
-44.953999 14.4 -52.3144
-44.289001 14.4 -52.159599
-43.624001 14.4 -51.977798
-42.959 14.4 -51.353199
-42.293999 14.4 -50.982399
-41.629002 14.4 -50.980598
-40.964001 14.4 -50.863602
-40.299 14.4 -50.597198
-39.633999 14.4 -50.824001
-38.969002 14.4 -51.119202
-38.304001 14.4 -51.554798
-37.639 14.4 -51.698799
-36.973999 14.4 -52.112801
-36.308998 14.4 -51.8536
-35.644001 14.4 -51.606998
-34.979 14.4 -51.3568
-34.313999 14.4 -51.040001
-33.648998 14.4 -50.327202
-32.984001 14.4 -50.210201
-32.319 14.4 -50.257
-31.653999 14.4 -50.327202
-30.989 14.4 -49.4902
-30.323999 14.4 -49.216599
-29.659 14.4 -49.0798
-28.993999 14.4 -48.889
-28.329 14.4 -48.3274
-27.664 14.4 -47.745998
-26.999001 14.4 -47.767601
-26.334 14.4 -46.968399
-25.669001 14.4 -46.9828
-25.004 14.4 -47.665001
-24.339001 14.4 -46.880199
-23.674 14.4 -46.2286
-23.009001 14.4 -45.757
-22.344 14.4 -45.596802
-21.679001 14.4 -45.465401
-21.014 14.4 -45.415001
-20.349001 14.4 -44.673401
-19.684 14.4 -44.282799
-19.018999 14.4 -44.2738
-18.354 14.4 -43.93
-17.688999 14.4 -43.3144
-17.024 14.4 -43.548401
-16.358999 14.4 -43.091202
-15.694 14.4 -43.100201
-15.029 14.4 -42.9202
-14.364 14.4 -42.688
-13.699 14.4 -42.261398
-13.034 14.4 -42.299198
-12.369 14.4 -41.8582
-11.704 14.4 -41.6782
-11.039 14.4 -41.481998
-10.374 14.4 -41.649399
-9.7089996 14.4 -41.4874
-9.0439997 14.4 -41.771801
-8.3789997 14.4 -41.0896
-7.7140002 14.4 -40.805199
-7.0489998 14.4 -40.650398
-6.3839998 14.4 -40.769199
-5.7189999 14.4 -40.9744
-5.0539999 14.4 -41.041
-4.3889999 14.4 -41.172401
-3.724 14.4 -41.118401
-3.059 14.4 -inf
-2.3940001 14.4 -inf
-1.729 14.4 -40.9006
-1.064 14.4 -inf
-0.39899999 14.4 -40.942001
0.266 14.4 -41.071602
0.93099999 14.4 -41.350601
1.596 14.4 -41.183201
2.2609999 14.4 -40.662998
2.9260001 14.4 -40.4506
3.5910001 14.4 -40.430801
4.256 14.4 -40.495602
4.921 14.4 -40.4506
5.586 14.4 -40.195
6.2509999 14.4 -39.987999
6.9159999 14.4 -40.110401
7.5809999 14.4 -40.011398
8.2460003 14.4 -40.069
8.9110003 14.4 -39.806198
9.5760002 14.4 -39.897999
10.241 14.4 -39.831402
10.906 14.4 -40.195
11.571 14.4 -40.074402
12.236 14.4 -39.7738
12.901 14.4 -39.755798
13.566 14.4 -39.8008
14.231 14.4 -39.908798
14.896 14.4 -39.6964
15.561 14.4 -39.818802
16.226 14.4 -39.755798
16.891001 14.4 -39.741402
17.556 14.4 -39.498402
18.221001 14.4 -39.6838
18.886 14.4 -39.833199
19.551001 14.4 -40.285
20.216 14.4 -40.666599
20.881001 14.4 -40.727798
21.546 14.4 -40.7206
22.211 14.4 -40.679199
22.875999 14.4 -40.891602
23.541 14.4 -40.904202
24.205999 14.4 -41.4496
24.871 14.4 -41.888802
25.535999 14.4 -41.761002
26.201 14.4 -42.4216
26.865999 14.4 -42.965199
27.531 14.4 -43.237
28.195999 14.4 -43.166801
28.861 14.4 -43.1236
29.525999 14.4 -43.695999
30.191 14.4 -44.212601
30.856001 14.4 -44.484402
31.521 14.4 -44.844398
32.186001 14.4 -45.3088
32.851002 14.4 -45.870399
33.515999 14.4 -46.120602
34.181 14.4 -46.6534
34.846001 14.4 -47.029598
35.511002 14.4 -47.728001
36.175999 14.4 -48.370602
36.841 14.4 -48.907001
37.506001 14.4 -49.7332
38.171001 14.4 -51.248798
38.835999 14.4 -53.266602
39.500999 14.4 -54.541
40.166 14.4 -56.169998
40.831001 14.4 -56.8522
41.495998 14.4 -57.3148
42.160999 14.4 -58.0924
42.826 14.4 -58.8232
43.491001 14.4 -59.455002
44.155998 14.4 -60.032799
44.820999 14.4 -60.754601
45.486 14.4 -61.577202
46.151001 14.4 -62.200001
46.816002 14.4 -62.8876
47.480999 14.4 -63.499599
48.146 14.4 -64.217796
48.811001 14.4 -64.747002
49.476002 14.4 -65.529999
50.140999 14.4 -66.298599
50.806 14.4 -67.011398
51.471001 14.4 -67.684601
52.136002 14.4 -68.482002
52.800999 14.4 -69.450401
53.466 14.4 -70.352203
54.131001 14.4 -71.511398
54.796001 14.4 -72.373596
55.460999 14.4 -73.176399
56.125999 14.4 -74.319397
56.791 14.4 -inf
57.456001 14.4 -inf
58.120998 14.4 -inf
58.785999 14.4 -inf
-60.249001 15.12 -inf
-59.584 15.12 -67.439796
-58.918999 15.12 -66.195999
-58.254002 15.12 -64.705597
-57.589001 15.12 -63.505001
-56.924 15.12 -63.505001
-56.258999 15.12 -57.3022
-55.594002 15.12 -56.270802
-54.929001 15.12 -55.5382
-54.264 15.12 -54.9478
-53.598999 15.12 -54.5392
-52.933998 15.12 -54.299801
-52.269001 15.12 -53.792198
-51.604 15.12 -53.315201
-50.938999 15.12 -53.0956
-50.273998 15.12 -53.0056
-49.609001 15.12 -52.897598
-48.944 15.12 -52.879601
-48.278999 15.12 -52.170399
-47.613998 15.12 -51.923801
-46.949001 15.12 -51.783401
-46.284 15.12 -52.021
-45.618999 15.12 -52.398998
-44.953999 15.12 -52.629398
-44.289001 15.12 -52.739201
-43.624001 15.12 -52.5448
-42.959 15.12 -51.720402
-42.293999 15.12 -51.2938
-41.629002 15.12 -51.041801
-40.964001 15.12 -51.095798
-40.299 15.12 -50.969799
-39.633999 15.12 -51.187599
-38.969002 15.12 -51.426998
-38.304001 15.12 -51.472
-37.639 15.12 -51.5242
-36.973999 15.12 -51.466599
-36.308998 15.12 -51.720402
-35.644001 15.12 -51.174999
-34.979 15.12 -50.784401
-34.313999 15.12 -50.534199
-33.648998 15.12 -50.215599
-32.984001 15.12 -50.195801
-32.319 15.12 -50.006802
-31.653999 15.12 -50.033798
-30.989 15.12 -49.558601
-30.323999 15.12 -48.970001
-29.659 15.12 -49.0438
-28.993999 15.12 -48.537998
-28.329 15.12 -47.740601
-27.664 15.12 -47.5606
-26.999001 15.12 -47.898998
-26.334 15.12 -47.341
-25.669001 15.12 -47.368
-25.004 15.12 -47.306801
-24.339001 15.12 -46.635399
-23.674 15.12 -46.250198
-23.009001 15.12 -46.030602
-22.344 15.12 -45.452801
-21.679001 15.12 -45.722801
-21.014 15.12 -45.424
-20.349001 15.12 -44.695
-19.684 15.12 -44.309799
-19.018999 15.12 -43.996601
-18.354 15.12 -43.948002
-17.688999 15.12 -43.548401
-17.024 15.12 -43.435001
-16.358999 15.12 -43.121799
-15.694 15.12 -43.2118
-15.029 15.12 -43.182999
-14.364 15.12 -42.711399
-13.699 15.12 -42.545799
-13.034 15.12 -42.414398
-12.369 15.12 -41.771801
-11.704 15.12 -41.777199
-11.039 15.12 -41.491001
-10.374 15.12 -41.510799
-9.7089996 15.12 -41.867199
-9.0439997 15.12 -41.555801
-8.3789997 15.12 -41.361401
-7.7140002 15.12 -41.058998
-7.0489998 15.12 -41.046398
-6.3839998 15.12 -40.779999
-5.7189999 15.12 -41.248001
-5.0539999 15.12 -41.2048
-4.3889999 15.12 -41.273201
-3.724 15.12 -41.148998
-3.059 15.12 -41.037399
-2.3940001 15.12 -40.979801
-1.729 15.12 -40.826801
-1.064 15.12 -40.751202
-0.39899999 15.12 -40.8862
0.266 15.12 -41.107601
0.93099999 15.12 -41.069801
1.596 15.12 -41.233601
2.2609999 15.12 -40.844799
2.9260001 15.12 -40.573002
3.5910001 15.12 -40.313801
4.256 15.12 -40.454201
4.921 15.12 -40.195
5.586 15.12 -40.088799
6.2509999 15.12 -39.820599
6.9159999 15.12 -40.042
7.5809999 15.12 -39.955601
8.2460003 15.12 -39.9286
8.9110003 15.12 -39.820599
9.5760002 15.12 -39.916
10.241 15.12 -39.831402
10.906 15.12 -40.033001
11.571 15.12 -40.069
12.236 15.12 -40.013199
12.901 15.12 -39.943001
13.566 15.12 -39.8242
14.231 15.12 -39.7864
14.896 15.12 -39.597401
15.561 15.12 -39.590199
16.226 15.12 -39.550598
16.891001 15.12 -39.681999
17.556 15.12 -39.624401
18.221001 15.12 -39.669399
18.886 15.12 -39.968201
19.551001 15.12 -40.1464
20.216 15.12 -39.899799
20.881001 15.12 -40.250801
21.546 15.12 -40.618
22.211 15.12 -40.4884
22.875999 15.12 -40.418201
23.541 15.12 -40.893398
24.205999 15.12 -41.318199
24.871 15.12 -41.566601
25.535999 15.12 -41.917599
26.201 15.12 -41.9086
26.865999 15.12 -42.425201
27.531 15.12 -42.709599
28.195999 15.12 -43.116402
28.861 15.12 -43.435001
29.525999 15.12 -43.593399
30.191 15.12 -43.9804
30.856001 15.12 -44.448399
31.521 15.12 -44.757999
32.186001 15.12 -45.186401
32.851002 15.12 -45.775002
33.515999 15.12 -46.174599
34.181 15.12 -46.532799
34.846001 15.12 -46.777599
35.511002 15.12 -47.196999
36.175999 15.12 -47.8936
36.841 15.12 -48.613602
37.506001 15.12 -49.405602
38.171001 15.12 -51.398201
38.835999 15.12 -53.077599
39.500999 15.12 -54.5014
40.166 15.12 -56.188
40.831001 15.12 -56.695599
41.495998 15.12 -57.1348
42.160999 15.12 -58.061798
42.826 15.12 -58.6828
43.491001 15.12 -59.395599
44.155998 15.12 -59.980598
44.820999 15.12 -60.723999
45.486 15.12 -61.525002
46.151001 15.12 -62.167599
46.816002 15.12 -62.754398
47.480999 15.12 -63.3358
48.146 15.12 -64.140404
48.811001 15.12 -64.725403
49.476002 15.12 -65.512001
50.140999 15.12 -66.235603
50.806 15.12 -67.004204
51.471001 15.12 -67.5802
52.136002 15.12 -68.483803
52.800999 15.12 -69.333397
53.466 15.12 -70.172203
54.131001 15.12 -71.237801
54.796001 15.12 -72.092796
55.460999 15.12 -72.829002
56.125999 15.12 -73.728996
56.791 15.12 -inf
57.456001 15.12 -inf
58.120998 15.12 -inf
58.785999 15.12 -inf
-60.249001 15.84 -inf
-59.584 15.84 -67.567596
-58.918999 15.84 -66.332802
-58.254002 15.84 -64.991798
-57.589001 15.84 -63.976601
-56.924 15.84 -63.8074
-56.258999 15.84 -57.203201
-55.594002 15.84 -56.319401
-54.929001 15.84 -55.549
-54.264 15.84 -55.003601
-53.598999 15.84 -54.575199
-52.933998 15.84 -54.132401
-52.269001 15.84 -53.970402
-51.604 15.84 -53.867802
-50.938999 15.84 -53.826401
-50.273998 15.84 -53.176601
-49.609001 15.84 -53.036201
-48.944 15.84 -53.118999
-48.278999 15.84 -52.4944
-47.613998 15.84 -52.2118
-46.949001 15.84 -52.089401
-46.284 15.84 -52.3918
-45.618999 15.84 -52.346802
-44.953999 15.84 -52.292801
-44.289001 15.84 -52.535801
-43.624001 15.84 -52.134399
-42.959 15.84 -51.5746
-42.293999 15.84 -51.4702
-41.629002 15.84 -51.542198
-40.964001 15.84 -51.362202
-40.299 15.84 -51.1264
-39.633999 15.84 -51.273998
-38.969002 15.84 -51.500801
-38.304001 15.84 -52.080399
-37.639 15.84 -52.0714
-36.973999 15.84 -51.6394
-36.308998 15.84 -51.774399
-35.644001 15.84 -51.142601
-34.979 15.84 -50.6026
-34.313999 15.84 -50.276798
-33.648998 15.84 -50.1562
-32.984001 15.84 -50.2714
-32.319 15.84 -49.954601
-31.653999 15.84 -50.044601
-30.989 15.84 -49.583801
-30.323999 15.84 -49.2868
-29.659 15.84 -49.3372
-28.993999 15.84 -48.5938
-28.329 15.84 -48.255402
-27.664 15.84 -47.938599
-26.999001 15.84 -48.1978
-26.334 15.84 -47.602001
-25.669001 15.84 -47.652401
-25.004 15.84 -47.310398
-24.339001 15.84 -47.125
-23.674 15.84 -46.302399
-23.009001 15.84 -46.2808
-22.344 15.84 -45.776798
-21.679001 15.84 -45.838001
-21.014 15.84 -45.458199
-20.349001 15.84 -45.082001
-19.684 15.84 -44.932598
-19.018999 15.84 -44.523998
-18.354 15.84 -44.244999
-17.688999 15.84 -43.472801
-17.024 15.84 -43.330601
-16.358999 15.84 -43.272999
-15.694 15.84 -43.4944
-15.029 15.84 -43.220798
-14.364 15.84 -42.601601
-13.699 15.84 -42.716801
-13.034 15.84 -42.389198
-12.369 15.84 -42.103001
-11.704 15.84 -41.688999
-11.039 15.84 -41.653
-10.374 15.84 -41.885201
-9.7089996 15.84 -41.994999
-9.0439997 15.84 -41.629601
-8.3789997 15.84 -41.561199
-7.7140002 15.84 -41.458599
-7.0489998 15.84 -40.9384
-6.3839998 15.84 -41.0536
-5.7189999 15.84 -41.305599
-5.0539999 15.84 -41.291199
-4.3889999 15.84 -41.365002
-3.724 15.84 -41.202999
-3.059 15.84 -41.019402
-2.3940001 15.84 -41.041
-1.729 15.84 -40.969002
-1.064 15.84 -40.837601
-0.39899999 15.84 -41.021198
0.266 15.84 -41.084202
0.93099999 15.84 -40.904202
1.596 15.84 -40.9492
2.2609999 15.84 -40.699001
2.9260001 15.84 -40.500999
3.5910001 15.84 -40.0564
4.256 15.84 -40.283199
4.921 15.84 -40.256199
5.586 15.84 -39.921398
6.2509999 15.84 -39.8008
6.9159999 15.84 -39.732399
7.5809999 15.84 -39.709
8.2460003 15.84 -39.752201
8.9110003 15.84 -39.878201
9.5760002 15.84 -39.9664
10.241 15.84 -40.112202
10.906 15.84 -40.137402
11.571 15.84 -40.040199
12.236 15.84 -40.014999
12.901 15.84 -39.833199
13.566 15.84 -39.552399
14.231 15.84 -39.597401
14.896 15.84 -39.564999
15.561 15.84 -39.599201
16.226 15.84 -39.437199
16.891001 15.84 -39.599201
17.556 15.84 -39.536201
18.221001 15.84 -39.574001
18.886 15.84 -39.759399
19.551001 15.84 -39.8638
20.216 15.84 -39.743198
20.881001 15.84 -40.087002
21.546 15.84 -40.117599
22.211 15.84 -40.083401
22.875999 15.84 -40.4002
23.541 15.84 -40.673801
24.205999 15.84 -41.161598
24.871 15.84 -41.240799
25.535999 15.84 -41.751999
26.201 15.84 -42.081402
26.865999 15.84 -42.605202
27.531 15.84 -42.896801
28.195999 15.84 -42.806801
28.861 15.84 -43.001202
29.525999 15.84 -43.602402
30.191 15.84 -43.973202
30.856001 15.84 -44.387199
31.521 15.84 -44.788601
32.186001 15.84 -45.1432
32.851002 15.84 -45.8344
33.515999 15.84 -46.1548
34.181 15.84 -46.297001
34.846001 15.84 -46.385201
35.511002 15.84 -46.8946
36.175999 15.84 -47.474201
36.841 15.84 -48.203201
37.506001 15.84 -49.0312
38.171001 15.84 -51.009399
38.835999 15.84 -52.9282
39.500999 15.84 -54.701199
40.166 15.84 -56.2258
40.831001 15.84 -57.0844
41.495998 15.84 -57.388599
42.160999 15.84 -57.946602
42.826 15.84 -58.702599
43.491001 15.84 -59.464001
44.155998 15.84 -60.097599
44.820999 15.84 -60.7258
45.486 15.84 -61.3396
46.151001 15.84 -61.951599
46.816002 15.84 -62.610401
47.480999 15.84 -63.490601
48.146 15.84 -64.041397
48.811001 15.84 -64.610199
49.476002 15.84 -65.376999
50.140999 15.84 -66.140198
50.806 15.84 -66.984398
51.471001 15.84 -67.769203
52.136002 15.84 -68.498199
52.800999 15.84 -69.322601
53.466 15.84 -70.220802
54.131001 15.84 -70.951599
54.796001 15.84 -71.731003
55.460999 15.84 -72.370003
56.125999 15.84 -73.261002
56.791 15.84 -74.292397
57.456001 15.84 -inf
58.120998 15.84 -inf
58.785999 15.84 -inf
-60.249001 16.559999 -inf
-59.584 16.559999 -67.472198
-58.918999 16.559999 -66.291397
-58.254002 16.559999 -65.222198
-57.589001 16.559999 -63.9604
-56.924 16.559999 -62.905602
-56.258999 16.559999 -62.8624
-55.594002 16.559999 -56.382401
-54.929001 16.559999 -55.595798
-54.264 16.559999 -55.048599
-53.598999 16.559999 -54.575199
-52.933998 16.559999 -54.208
-52.269001 16.559999 -53.830002
-51.604 16.559999 -53.882198
-50.938999 16.559999 -53.378201
-50.273998 16.559999 -53.334999
-49.609001 16.559999 -53.0452
-48.944 16.559999 -52.9804
-48.278999 16.559999 -52.818401
-47.613998 16.559999 -52.388199
-46.949001 16.559999 -52.044399
-46.284 16.559999 -52.6348
-45.618999 16.559999 -52.818401
-44.953999 16.559999 -52.645599
-44.289001 16.559999 -52.389999
-43.624001 16.559999 -52.087601
-42.959 16.559999 -51.952599
-42.293999 16.559999 -51.569199
-41.629002 16.559999 -51.570999
-40.964001 16.559999 -51.4702
-40.299 16.559999 -51.567402
-39.633999 16.559999 -51.655602
-38.969002 16.559999 -51.6646
-38.304001 16.559999 -51.8932
-37.639 16.559999 -52.080399
-36.973999 16.559999 -55.8946
-36.308998 16.559999 -55.8946
-35.644001 16.559999 -51.4324
-34.979 16.559999 -50.77
-34.313999 16.559999 -50.59
-33.648998 16.559999 -50.1022
-32.984001 16.559999 -49.915001
-32.319 16.559999 -49.844799
-31.653999 16.559999 -49.7206
-30.989 16.559999 -49.610802
-30.323999 16.559999 -49.346199
-29.659 16.559999 -48.691002
-28.993999 16.559999 -48.448002
-28.329 16.559999 -48.105999
-27.664 16.559999 -47.594799
-26.999001 16.559999 -47.506599
-26.334 16.559999 -47.101601
-25.669001 16.559999 -47.439999
-25.004 16.559999 -47.105202
-24.339001 16.559999 -46.795601
-23.674 16.559999 -46.540001
-23.009001 16.559999 -46.262798
-22.344 16.559999 -45.874001
-21.679001 16.559999 -45.4492
-21.014 16.559999 -45.361
-20.349001 16.559999 -45.094601
-19.684 16.559999 -44.8102
-19.018999 16.559999 -44.523998
-18.354 16.559999 -43.9174
-17.688999 16.559999 -43.820202
-17.024 16.559999 -43.3414
-16.358999 16.559999 -43.143398
-15.694 16.559999 -43.598801
-15.029 16.559999 -43.298199
-14.364 16.559999 -42.733002
-13.699 16.559999 -42.455799
-13.034 16.559999 -42.405399
-12.369 16.559999 -41.7934
-11.704 16.559999 -41.516201
-11.039 16.559999 -41.237202
-10.374 16.559999 -41.847401
-9.7089996 16.559999 -41.656601
-9.0439997 16.559999 -41.285801
-8.3789997 16.559999 -41.300201
-7.7140002 16.559999 -41.379398
-7.0489998 16.559999 -41.366798
-6.3839998 16.559999 -41.177799
-5.7189999 16.559999 -41.148998
-5.0539999 16.559999 -41.347
-4.3889999 16.559999 -41.375801
-3.724 16.559999 -41.085999
-3.059 16.559999 -40.959999
-2.3940001 16.559999 -41.033798
-1.729 16.559999 -41.147202
-1.064 16.559999 -40.8736
-0.39899999 16.559999 -40.943802
0.266 16.559999 -40.942001
0.93099999 16.559999 -40.893398
1.596 16.559999 -40.675598
2.2609999 16.559999 -40.536999
2.9260001 16.559999 -40.436199
3.5910001 16.559999 -40.245399
4.256 16.559999 -40.2868
4.921 16.559999 -40.254398
5.586 16.559999 -39.980801
6.2509999 16.559999 -39.894402
6.9159999 16.559999 -39.8512
7.5809999 16.559999 -39.691002
8.2460003 16.559999 -39.611801
8.9110003 16.559999 -39.642399
9.5760002 16.559999 -39.653198
10.241 16.559999 -40.0312
10.906 16.559999 -40.040199
11.571 16.559999 -39.923199
12.236 16.559999 -39.8008
12.901 16.559999 -39.725201
13.566 16.559999 -39.665798
14.231 16.559999 -39.386799
14.896 16.559999 -39.372398
15.561 16.559999 -39.151001
16.226 16.559999 -39.383202
16.891001 16.559999 -39.577599
17.556 16.559999 -39.230202
18.221001 16.559999 -39.244598
18.886 16.559999 -39.277
19.551001 16.559999 -39.615398
20.216 16.559999 -39.3526
20.881001 16.559999 -39.667599
21.546 16.559999 -39.779202
22.211 16.559999 -39.6082
22.875999 16.559999 -39.916
23.541 16.559999 -40.1842
24.205999 16.559999 -40.2868
24.871 16.559999 -41.0158
25.535999 16.559999 -41.312801
26.201 16.559999 -41.674599
26.865999 16.559999 -42.387402
27.531 16.559999 -42.425201
28.195999 16.559999 -42.596199
28.861 16.559999 -43.291
29.525999 16.559999 -43.490799
30.191 16.559999 -43.6348
30.856001 16.559999 -44.374599
31.521 16.559999 -44.954201
32.186001 16.559999 -45.279999
32.851002 16.559999 -45.5536
33.515999 16.559999 -45.861401
34.181 16.559999 -46.082802
34.846001 16.559999 -46.297001
35.511002 16.559999 -46.707401
36.175999 16.559999 -47.119598
36.841 16.559999 -47.850399
37.506001 16.559999 -48.584801
38.171001 16.559999 -51.655602
38.835999 16.559999 -52.741001
39.500999 16.559999 -55.016201
40.166 16.559999 -56.215
40.831001 16.559999 -56.862999
41.495998 16.559999 -57.556
42.160999 16.559999 -58.2076
42.826 16.559999 -58.672001
43.491001 16.559999 -59.298401
44.155998 16.559999 -59.926601
44.820999 16.559999 -60.783401
45.486 16.559999 -61.517799
46.151001 16.559999 -62.003799
46.816002 16.559999 -62.597801
47.480999 16.559999 -63.202599
48.146 16.559999 -64.010803
48.811001 16.559999 -64.502197
49.476002 16.559999 -65.285202
50.140999 16.559999 -65.992599
50.806 16.559999 -66.691002
51.471001 16.559999 -67.711601
52.136002 16.559999 -68.444199
52.800999 16.559999 -69.390999
53.466 16.559999 -70.078598
54.131001 16.559999 -70.746399
54.796001 16.559999 -71.252197
55.460999 16.559999 -71.876801
56.125999 16.559999 -72.704803
56.791 16.559999 -73.774002
57.456001 16.559999 -inf
58.120998 16.559999 -inf
58.785999 16.559999 -inf
-60.249001 17.280001 -inf
-59.584 17.280001 -67.308403
-58.918999 17.280001 -66.374199
-58.254002 17.280001 -65.314003
-57.589001 17.280001 -64.111603
-56.924 17.280001 -63.028
-56.258999 17.280001 -63.028
-55.594002 17.280001 -56.641602
-54.929001 17.280001 -55.702
-54.264 17.280001 -55.291599
-53.598999 17.280001 -55.0504
-52.933998 17.280001 -54.710201
-52.269001 17.280001 -55.1026
-51.604 17.280001 -53.934399
-50.938999 17.280001 -54.0154
-50.273998 17.280001 -53.792198
-49.609001 17.280001 -53.4916
-48.944 17.280001 -53.072201
-48.278999 17.280001 -52.93
-47.613998 17.280001 -52.6996
-46.949001 17.280001 -52.719398
-46.284 17.280001 -53.048801
-45.618999 17.280001 -53.0308
-44.953999 17.280001 -52.624001
-44.289001 17.280001 -52.768002
-43.624001 17.280001 -52.346802
-42.959 17.280001 -51.8536
-42.293999 17.280001 -51.398201
